ply
format ascii 1.0
comment PCL generated
element vertex 1263
property float x
property float y
property float z
property float intensity
element camera 1
property float view_px
property float view_py
property float view_pz
property float x_axisx
property float x_axisy
property float x_axisz
property float y_axisx
property float y_axisy
property float y_axisz
property float z_axisx
property float z_axisy
property float z_axisz
property float focal
property float scalex
property float scaley
property float centerx
property float centery
property int viewportx
property int viewporty
property float k1
property float k2
end_header
0.68150997 0.85654938 1.0395666 12
0.69405842 0.82925773 1.0388362 27
0.71022415 0.8039521 1.0377405 34
-0.45037174 0.59441233 1.1458521 70
-0.38899946 0.57853329 1.2676635 20
-0.48203897 0.56442177 1.1491392 112
-0.420609 0.54720926 1.2703208 87
-0.48606539 0.53752673 1.1498697 89
-0.32189655 0.53621936 1.3916011 33
-0.43673754 0.51964116 1.2717969 129
-0.36182499 0.50503182 1.3940749 83
-0.48293781 0.48797959 1.1502349 7
-0.091261387 0.51808238 1.6434811 1
-0.39414024 0.47646183 1.396099 62
-0.44181681 0.46991026 1.2726828 7
-0.49153852 0.46307766 1.1513307 7
-0.044151306 0.49805105 1.6425605 31
-0.37494135 0.45377111 1.3951994 68
-0.43056631 0.446325 1.2720923 7
-0.49216747 0.43807894 1.1516958 7
-0.056575298 0.46995199 1.6428952 38
-0.21111107 0.44981444 1.5159514 10
-0.37957573 0.42786175 1.3956492 38
-0.45499611 0.41803384 1.274159 7
-0.49683571 0.41258168 1.1524264 8
-0.049102783 0.44316614 1.6428115 59
-0.22353983 0.42108512 1.5165693 62
-0.36037397 0.40376395 1.3947496 16
-0.44376278 0.39320832 1.2735685 7
-0.48958635 0.38740784 1.1520611 7
-0.065701962 0.41471159 1.6432301 57
-0.22433615 0.39519328 1.5167238 59
-0.39293718 0.37444872 1.3967736 10
-0.4129734 0.37198353 1.2715018 10
-0.45490313 0.36682451 1.1491392 10
0.3004632 0.43213493 1.7746341 3
0.0089211464 0.39729643 1.6417235 29
-0.25300646 0.36599684 1.5179594 26
-0.3978591 0.34868723 1.3972234 9
-0.4416604 0.34345311 1.2738638 7
-0.32931137 0.35687858 1.1378167 37
-0.093816757 0.36011851 1.7759256 4
-0.011979103 0.36962271 1.6422256 43
-0.27002621 0.33965439 1.5187317 30
-0.383183 0.32651281 1.3965487 9
-0.41116524 0.32326311 1.2717969 12
-0.30672503 0.33539224 1.1359905 45
-0.03680706 0.34034687 1.6428115 36
-0.21153212 0.32067299 1.5165693 48
-0.40018463 0.29943097 1.3976731 7
-0.31716156 0.30877924 1.2650063 28
-0.32760239 0.3076036 1.1381819 48
-0.17944956 0.29841781 1.7762227 4
-0.12535715 0.30431747 1.6447366 25
-0.20076513 0.29609305 1.5162604 94
-0.39346647 0.27507591 1.3974483 7
-0.30248594 0.28499883 1.2641206 37
-0.31294775 0.28385782 1.1370862 48
-0.058961391 0.28528553 1.6433975 47
-0.19803047 0.2706089 1.5162604 95
-0.40669155 0.24858797 1.3983479 7
-0.31169033 0.25861382 1.2650063 38
-0.32213926 0.25751114 1.1381819 47
-0.064090729 0.25719702 1.6435649 32
-0.21513796 0.24181587 1.5170326 103
-0.43180704 0.21975249 1.3999221 7
-0.31689548 0.2314539 1.2655967 39
-0.31544876 0.23160124 1.1378167 48
-0.23262978 0.21441251 1.647164 48
-0.18872547 0.21872842 1.5161059 93
-0.41343927 0.19663811 1.3990225 7
-0.31041527 0.20676577 1.2653015 40
-0.3327589 0.20456928 1.139643 48
-0.64862728 0.68151426 0.34070671 22
-0.27011299 0.18653011 1.648001 73
-0.20627785 0.19259173 1.5168781 117
-0.41514397 0.17275834 1.3992474 7
-0.32002497 0.18179059 1.2661872 39
-0.33046198 0.18079948 1.139643 48
-0.60578537 0.66537333 0.45608091 25
-0.6524663 0.6574825 0.34235013 31
-0.67387915 0.65386295 0.22434735 29
-0.65861511 0.65644324 0.098580956 29
-0.27174377 0.16092461 1.6480846 84
-0.20390511 0.16712749 1.5168781 118
-0.40886211 0.1483869 1.3990225 7
-0.29782772 0.15853959 1.264711 43
-0.31226254 0.15721965 1.1381819 50
-0.4523735 0.66601646 0.80787718 24
-0.54937363 0.64996779 0.59158003 40
-0.63663864 0.63552999 0.46287608 41
-0.67164135 0.62973893 0.34728014 42
-0.68143702 0.62811828 0.22701037 34
-0.68528223 0.62748206 0.10620213 36
-0.28530455 0.13302892 1.6484195 86
-0.201509 0.14038128 1.5168781 119
-0.41846848 0.12134486 1.3996972 7
-0.29943514 0.13178903 1.2650063 45
-0.30593395 0.13121879 1.1378167 51
0.68933487 0.8240912 0.94140714 34
-0.5223484 0.62818038 0.94326866 26
-0.49899149 0.63195682 0.81503057 95
-0.4780364 0.63534498 0.68509197 46
-0.55688143 0.62259686 0.59360874 105
-0.66354418 0.60535121 0.46891618 129
-0.68686819 0.60158002 0.35138845 123
-0.68889904 0.60125172 0.2296735 34
-0.68503046 0.60187709 0.10715473 36
-0.27915382 0.10817653 1.6483358 59
-0.20330048 0.11456525 1.5170326 120
-0.41236258 0.096956968 1.3994722 7
-0.34497356 0.10263276 1.2685492 11
-0.30377436 0.10610282 1.1378167 48
-0.46149302 0.61282241 1.062475 34
-0.51845264 0.60381687 0.94326866 43
-0.51856422 0.60379922 0.81833214 42
-0.51705217 0.60403824 0.69190526 103
-0.57247543 0.59527552 0.59698987 117
-0.65196848 0.58270729 0.46740615 130
-0.68306494 0.57779074 0.35138845 139
-0.70050573 0.57503343 0.23322427 114
-0.70041227 0.57504821 0.11191797 36
-0.25315809 0.084897518 1.6478336 74
-0.20916843 0.088447928 1.5173416 110
-0.3983798 0.073176503 1.3987976 8
-0.49798393 0.065137386 1.2800641 7
-0.43414497 0.59187877 1.1864243 11
-0.30567312 0.080658972 1.1381819 43
-0.49304008 0.58277786 1.0661811 99
-0.53033972 0.57701397 0.94519389 64
-0.47951365 0.58486795 0.81337982 7
-0.53667355 0.57603514 0.69562161 128
-0.56869411 0.571087 0.59698987 128
-0.64823055 0.55879641 0.46740615 140
-0.67547607 0.55458617 0.35056686 143
-0.70835829 0.54950488 0.23588729 211
-0.70053959 0.55071318 0.11287057 34
-0.25125837 0.060862601 1.6478336 66
-0.19530153 0.065192223 1.5168781 129
-0.41244602 0.048390865 1.3996972 10
-0.36969566 0.5776422 1.3086371 25
-0.48023987 0.043145418 1.278883 7
-0.4463253 0.56606078 1.1877923 77
-0.50128984 0.55775368 1.0674164 140
-0.53858519 0.55211699 0.94663781 40
-0.54646921 0.55092537 0.82328451 6
-0.55268002 0.54998672 0.69871855 136
-0.58077383 0.54574084 0.59969473 124
-0.65640879 0.53430974 0.46967113 138
-0.6797576 0.53078091 0.35221016 144
-0.70491552 0.52697861 0.23588729 212
-0.70093441 0.52758026 0.11382329 32
-0.26520395 0.033115208 1.6481683 97
-0.17334795 0.039883912 1.5161059 155
-0.41844845 0.021822989 1.400147 8
-0.39343023 0.54742765 1.3105406 92
-0.49818754 0.015947163 1.2803593 7
-0.45823717 0.53787601 1.1891603 108
-0.54809046 0.012269974 1.1608269 7
-0.4187355 0.54369795 1.0591805 24
-0.55441856 0.52369988 0.94904441 95
-0.54266405 0.52543235 0.82328451 8
-0.55669785 0.52336407 0.69995737 137
-0.57698727 0.52037346 0.59969473 126
-0.65655041 0.50864697 0.4704262 144
-0.67989826 0.50520551 0.35303187 142
-0.70505571 0.50149775 0.23677504 182
-0.69721365 0.50265348 0.11382329 32
-0.2673769 0.0075775981 1.648252 102
-0.19543123 0.012626708 1.5170326 252
-0.35865688 0.52709615 1.4360276 6
-0.4206543 -0.0031792819 1.4003718 9
-0.42536831 0.51750135 1.3129878 67
-0.48051214 -0.0073799789 1.2791783 7
-0.45860195 0.51272166 1.1895024 57
-0.53839779 -0.011442363 1.1600964 7
-0.4820857 0.5093441 1.0661811 12
-0.55874872 0.4983182 0.95000702 111
-0.57050085 0.49662799 0.82768661 10
-0.56099033 0.49799573 0.70119619 137
-0.57346773 0.49620122 0.59969473 129
-0.65695906 0.48419321 0.47118115 143
-0.68418074 0.48027813 0.35467517 140
-0.7170434 0.47555172 0.24032581 45
-0.70144606 0.47779495 0.1157285 34
-0.26564932 -0.017672211 1.648252 91
-0.18969822 -0.012608409 1.5168781 252
-0.3353343 0.50493634 1.43502 40
-0.41896343 -0.02789399 1.4003718 7
-0.49077606 -0.032681853 1.2800641 7
-0.54468393 -0.036276013 1.1608269 7
-0.51012659 0.48041952 1.0694754 10
-0.56710339 0.47242773 0.95145094 114
-0.57883501 0.47078228 0.82933742 13
-0.56146288 0.47321886 0.70181549 135
-0.5700326 0.47201687 0.59969473 135
-0.65745544 0.45975471 0.47193623 140
-0.68080044 0.45648026 0.35467517 139
-0.70981693 0.45241034 0.23943806 68
-0.70961666 0.45243841 0.11858642 34
-0.26400948 -0.042926192 1.648252 96
-0.037447929 0.52016973 1.5532975 0
-0.20000839 -0.038883477 1.5173416 213
-0.36353493 0.47559196 1.4366323 26
-0.40938711 -0.052109241 1.3999221 10
-0.40262127 0.47024858 1.3119001 7
-0.4772439 -0.056395531 1.2791783 7
-0.47934341 0.45976031 1.1918964 7
-0.54310751 -0.060555905 1.1608269 7
-0.52251482 0.45385855 1.0711226 8
-0.57161951 0.4471457 0.95241356 114
-0.57941341 0.44608021 0.82988769 14
-0.56985378 0.4473871 0.70367372 136
-0.57058716 0.44728678 0.600371 140
-0.65803862 0.43533176 0.47269118 144
-0.6813817 0.43214065 0.35549688 156
-0.71426201 0.42764574 0.24121344 44
-0.71018219 0.42820352 0.11953914 26
-0.25854158 -0.066685528 1.6481683 92
-0.11336136 0.48485017 1.5559164 22
-0.23442841 -0.065242648 1.5187317 184
-0.37617826 0.44980907 1.4374384 63
-0.40794086 -0.07562533 1.3999221 10
-0.43504524 0.44196051 1.3143475 7
-0.48775721 -0.080401391 1.2800641 7
-0.47619963 0.43647343 1.1918964 7
-0.54566479 -0.083866447 1.1611922 7
-0.52333355 0.43018907 1.0715344 8
-0.57638931 0.42311519 0.95337617 114
-0.57238674 0.42364889 0.82933742 16
-0.57850122 0.42283368 0.70553195 138
-0.57529974 0.42326051 0.60172343 138
-0.66276217 0.41159934 0.4742012 139
-0.67832804 0.4095239 0.35549688 252
-0.70735741 0.40565348 0.24032581 40
-0.69943953 0.40670913 0.11763382 26
0.08354187 0.484173 1.6850756 15
-0.25707293 -0.091965795 1.6481683 103
-0.18926048 0.44876939 1.5585353 57
-0.20102978 -0.088808566 1.517496 242
-0.36894464 0.42545038 1.4372368 116
-0.41846418 -0.10105789 1.4005967 9
-0.44762993 0.4152388 1.3154352 7
-0.47040415 -0.10398394 1.278883 7
-0.48087788 0.41092396 1.1925805 7
-0.52834606 -0.10724813 1.1597311 7
-0.53985786 0.40326965 1.0735934 9
-0.58896065 0.39689726 0.9553014 111
-0.58885002 0.39691168 0.83208871 18
-0.57924128 0.39815861 0.70615125 139
-0.57211924 0.3990829 0.60172343 139
-0.66351652 0.38722163 0.47495627 139
-0.68295908 0.38469845 0.35714018 254
-0.74291563 0.37691742 0.24920273 45
-0.69631577 0.38296503 0.11763382 28
0.047416687 0.45136917 1.6856767 68
-0.25962019 -0.11872563 1.648252 103
-0.2016983 0.41996777 1.5590591 82
-0.17562246 -0.11430237 1.5165693 200
-0.38145447 0.39730895 1.438043 88
-0.41704988 -0.12701583 1.4005967 10
-0.42056608 0.39237887 1.3138037 6
-0.46899986 -0.12975147 1.278883 7
0.79957581 0.54618061 1.0821095 12
-0.55479813 -0.13426957 1.162288 7
-0.54843664 0.37626058 1.0748287 9
-0.61329794 0.36808461 0.95867056 80
-0.59740114 0.37008846 0.83373952 20
-0.58383703 0.37179822 0.70739007 138
-0.58451653 0.37171257 0.60442829 144
-0.65251637 0.36314112 0.47344625 136
-0.67976189 0.3597067 0.35714018 254
-0.74361658 0.35165769 0.25009036 47
-0.70854235 0.3560788 0.12144434 28
0.32546806 0.45868015 1.8209153 5
0.042751789 0.42404515 1.6857969 92
-0.26232767 -0.14419818 1.6483358 80
-0.21440411 0.39254165 1.5595829 80
-0.17831278 -0.14006802 1.5167238 199
-0.38233089 0.37196922 1.4382446 108
-0.40781307 -0.15135023 1.400147 9
-0.44126129 0.36474991 1.3154352 7
-0.471735 -0.15449259 1.2791783 6
-0.49431753 0.35825002 1.1942905 9
-0.52173615 -0.15695062 1.1593659 7
-0.53752136 0.35295719 1.0740051 8
-0.62607622 0.34210861 0.96059579 67
-0.5983386 0.34550667 0.83428979 23
-0.58083582 0.34765089 0.70739007 135
-0.58542824 0.34708822 0.60510457 138
-0.65734291 0.33827817 0.47495627 129
-0.68068838 0.33541822 0.35796189 177
-0.72519922 0.32996523 0.24653959 46
-0.70173979 0.33283925 0.12049174 26
0.037988186 0.39676708 1.6859171 146
-0.25713444 -0.16928232 1.648252 84
-0.19545364 0.36899543 1.5590591 90
-0.17710114 -0.16562787 1.5167238 219
-0.3832984 0.34664822 1.438446 102
-0.39467096 -0.17556238 1.3994722 8
-0.38280678 0.34670663 1.3116283 16
-0.47455645 -0.17921007 1.2794735 7
-0.42804575 0.34132475 1.1888182 8
-0.21418715 -0.16732126 1.1312423 25
-0.54248905 0.32770985 1.0748287 7
-0.5954299 0.32141167 0.83428979 10
-0.58184338 0.32302797 0.70800948 127
-0.59034395 0.32201672 0.606457 144
-0.65835953 0.31392515 0.47571123 137
-0.69725132 0.3092984 0.36207032 109
-0.71072531 0.30769539 0.24387658 41
-0.69501686 0.30956417 0.11953914 25
0.056964874 0.37228334 1.6856767 101
-0.27999783 -0.19557762 1.6487542 94
-0.20835066 0.34165859 1.5595829 85
-0.18795872 -0.19169694 1.5171871 234
-0.38038635 0.32180089 1.438446 96
-0.40954208 -0.20103973 1.4003718 8
-0.32835722 0.32780647 1.3080933 12
-0.46550798 -0.20339948 1.278883 7
-0.31033945 0.32988626 1.1788998 38
-0.16133356 -0.19057432 1.1264942 45
-0.54359484 0.30296212 1.0752406 8
-0.62825394 0.29319006 0.96155846 11
-0.62015581 0.2941249 0.83814162 10
-0.57901287 0.29887384 0.70800948 137
-0.59143305 0.29744023 0.60713327 102
-0.65165806 0.2904886 0.47495627 134
-0.69446707 0.2855472 0.36207032 112
-0.71569586 0.28309685 0.24565196 40
-0.68837357 0.28625065 0.11858642 25
0.079689503 0.34944564 1.6853762 90
-0.28302431 -0.21967721 1.6488379 83
-0.24532986 0.31302124 1.5608923 63
-0.20295334 -0.21656707 1.517805 252
-0.38960981 0.29685187 1.4390507 82
-0.42056227 -0.22501951 1.4010465 8
-0.20270824 0.31779772 1.2996638 32
-0.2971487 -0.22022584 1.2664826 10
-0.30762625 0.30603963 1.1788998 49
-0.17626905 -0.2155306 1.1279552 52
-0.56073999 0.2776736 1.0772996 9
-0.64144659 0.26862884 0.96348369 10
-0.61362219 0.27174705 0.83759135 10
-0.58818293 0.274598 0.70986772 139
-0.58882666 0.27452594 0.60713327 28
-0.66078472 0.26646161 0.47722125 134
-0.70357084 0.26166672 0.36453533 111
-0.7131362 0.26059467 0.24565196 39
-0.68966389 0.2632252 0.11953914 26
0.086727619 0.32208973 1.6853161 28
-0.2225256 0.28857934 1.5602376 38
-0.18199062 -0.24261168 1.5170326 252
-0.39865255 0.26949435 1.4396553 87
-0.41161919 -0.25068817 1.4005967 9
-0.27911043 0.28244781 1.3051021 37
-0.21245241 -0.24368307 1.2602823 39
-0.3047204 0.27967274 1.1788998 53
-0.18323755 -0.24265552 1.1286857 51
-0.48673534 0.2599498 1.0698872 10
-0.63077974 0.24434131 0.96252108 10
-0.61083984 0.24650192 0.83759135 13
-0.59324837 0.2484082 0.71110642 138
-0.5860343 0.24918985 0.60713327 29
-0.66973782 0.24011981 0.47948635 161
-0.68914938 0.23801649 0.36207032 123
-0.69876146 0.23697484 0.24298882 41
-0.71008587 0.23574769 0.12525499 25
-0.25722027 -0.27056643 1.6483358 98
-0.23174524 0.26192081 1.5606304 63
-0.18912745 -0.26840943 1.5173416 253
-0.39600945 0.24470121 1.4396553 91
-0.39083385 -0.27479899 1.3994722 9
-0.27642298 0.25723732 1.3051021 38
-0.17173147 -0.26785833 1.2573297 45
-0.31789732 0.25288951 1.1802679 56
-0.1704402 -0.26781744 1.1275899 44
-0.31792879 0.2528863 1.0525918 28
-0.64402056 0.21870255 0.96444631 19
-0.62009764 0.22121036 0.8392421 27
-0.58674765 0.22470641 0.71048701 139
-0.57561922 0.22587293 0.60578084 28
-0.65938187 0.21709222 0.47797632 147
-0.69050741 0.2138294 0.36289191 125
-0.71950483 0.21078968 0.24831498 42
-0.69210386 0.21366203 0.12144434 25
-0.11065578 0.24854648 1.6883814 0
-0.25646353 -0.29585004 1.6483358 77
-0.20128727 0.23936546 1.5597138 91
-0.18836308 -0.29393071 1.5173416 254
-0.39742756 0.21949625 1.4398568 88
-0.40206766 -0.2999537 1.400147 8
-0.28970528 0.23040861 1.3061898 40
-0.17096519 -0.2934404 1.2573297 47
-0.31531286 0.22781456 1.1802679 60
-0.18958282 -0.2939651 1.1294161 43
-0.28367662 0.23101938 1.0492975 42
-0.63365173 0.19556653 0.96348369 28
-0.61367989 0.1975897 0.83869189 32
-0.59212303 0.19977343 0.71172583 141
-0.58881712 0.20010835 0.6084857 30
-0.66082859 0.19281358 0.47873127 142
-0.68805695 0.19005537 0.36289191 132
-0.69766235 0.18908226 0.24387658 40
-0.68578911 0.19028503 0.12049174 25
-0.032457352 0.23014295 1.6872394 4
-0.15184975 -0.31856969 1.6461595 68
-0.2226243 0.21154922 1.5604995 143
-0.18369246 -0.31935591 1.5171871 254
-0.40688705 0.19353288 1.4404614 88
-0.38544273 -0.32433724 1.3992474 8
-0.29117107 0.20484704 1.3064618 39
-0.17826509 -0.31922191 1.2579203 51
-0.31678295 0.20234281 1.1806099 56
-0.1769619 -0.31918973 1.1283205 44
-0.26928902 0.20698655 1.0480621 43
-0.63917017 0.17082125 0.96444631 26
-0.62705994 0.17200541 0.84089291 29
-0.59758806 0.17488694 0.71296465 135
-0.59426212 0.17521214 0.60983813 34
-0.66236162 0.16855371 0.47948635 147
-0.68958569 0.16589183 0.36371362 127
-0.70306158 0.16457421 0.24565196 39
-0.70275354 0.16460443 0.12525499 25
0.1054306 0.2168321 1.6851958 18
-0.16325569 -0.34447509 1.6464107 117
-0.2281456 0.18539172 1.5607615 119
-0.18310595 -0.3448959 1.5171871 254
-0.39257812 0.16989344 1.4398568 90
-0.39285851 -0.34934223 1.3996972 9
-0.28478193 0.18005353 1.3061898 37
-0.18166685 -0.34486538 1.2582154 51
-0.3064394 0.17801225 1.1799259 50
-0.18832254 -0.34500647 1.1294161 43
0.65033054 0.87038851 0.99342191 19
-0.26686573 0.18174225 1.0480621 44
-0.63687038 0.14686823 0.96444631 25
-0.63658953 0.14689475 0.84254372 30
-0.59134054 0.15115952 0.71234524 137
-0.5997982 0.15036243 0.61119068 38
-0.66006947 0.14468163 0.47948635 139
-0.6834054 0.14248216 0.36289191 132
-0.72019958 0.13901424 0.25009036 38
-0.69660759 0.14123785 0.12430227 25
0.21543217 0.20003742 1.6835729 30
0.057159424 -0.3661924 1.6418072 48
-0.24570513 0.15819752 1.5614161 125
-0.18660593 -0.37050855 1.5173416 254
-0.39426136 0.14471865 1.4400584 93
-0.38039637 -0.37393981 1.3990225 8
-0.28642654 0.15450281 1.3064618 34
-0.16920424 -0.37020043 1.2573297 51
-0.30808592 0.15253758 1.1802679 48
-0.18782616 -0.37053013 1.1294161 45
0.71791553 0.85227239 0.98720551 46
-0.26452971 0.15648949 1.0480621 44
-0.64256334 0.1221897 0.96540892 25
-0.62253618 0.12400687 0.84089291 31
-0.58517408 0.12739676 0.71172583 138
-0.60934925 0.12520331 0.61321926 41
-0.65003681 0.12151164 0.47797632 147
-0.6812048 0.1186837 0.36289191 131
-0.69858789 0.1171065 0.24565196 39
-0.69054174 0.11783653 0.12334967 25
0.34122705 0.18524384 1.6817096 27
0.11754274 -0.39039078 1.6405517 32
-0.25550985 0.13309515 1.5618089 81
-0.19420958 -0.3948766 1.5176505 253
-0.40410137 0.12010968 1.440663 90
-0.38401079 -0.39760768 1.3992474 9
-0.16482544 -0.39445382 1.2570345 49
-0.30199099 0.12903315 1.1799259 54
-0.16752243 -0.3944926 1.1275899 48
0.69484234 0.82057953 0.98992521 37
-0.29410219 0.12972254 1.0513564 46
-0.65240526 0.098410428 0.96685284 26
-0.62050438 0.10119826 0.84089291 32
-0.58706808 0.10412025 0.71234524 139
-0.60731316 0.10235101 0.61321926 48
-0.65975332 0.097768366 0.4802413 136
-0.68309021 0.095728874 0.36371362 132
-0.70046473 0.094210505 0.24653959 39
-0.69240046 0.09491533 0.12430227 25
0.32364321 0.15619713 1.6820102 26
0.10588217 -0.41711259 1.6408027 32
-0.22147322 0.11047626 1.5607615 95
-0.18589401 -0.42029232 1.5173416 252
-0.40596104 0.095002472 1.4408644 88
-0.38769007 -0.42249146 1.3994722 10
-0.46109343 0.090378404 1.3186982 6
-0.16051292 -0.42001572 1.2567393 41
-0.29189634 0.10456955 1.1792419 50
-0.1950798 -0.42039242 1.1301466 48
-0.47250223 0.60731077 1.1057057 82
-0.29194784 0.10456526 1.0513564 45
-0.63848734 0.075499713 0.96540892 25
-0.62634373 0.076518238 0.84199345 34
-0.58893919 0.079655468 0.71296465 139
-0.60132408 0.078616738 0.61254311 42
-0.65770817 0.073887587 0.4802413 139
-0.67715073 0.072256863 0.36289191 136
-0.71009159 0.069494009 0.24920273 41
-0.68262243 0.071797907 0.12239707 25
0.3179121 0.12824243 1.6821303 24
0.050139427 -0.44407749 1.6419746 81
-0.20743179 0.086026132 1.5603685 95
-0.18166304 -0.4457944 1.5171871 252
-0.40790987 0.069915831 1.441066 88
-0.36749506 -0.44717082 1.3983479 10
-0.45509768 0.066123843 1.3184264 7
-0.40254354 0.59295762 1.2262576 35
-0.28188515 0.080043077 1.1785579 31
-0.16696453 -0.44568554 1.1275899 47
-0.48835373 0.5797435 1.1076483 125
-0.53180504 0.05995971 1.0764759 63
-0.63652039 0.051544845 0.96540892 25
-0.63227177 0.051886261 0.84309399 36
-0.58695793 0.055527627 0.71296465 140
-0.59934664 0.054532051 0.61254311 92
-0.65966177 0.04968518 0.48099637 140
-0.68299961 0.04780978 0.36453533 137
-0.70814562 0.045789063 0.24920273 42
-0.70777512 0.045818806 0.12906551 24
0.29623556 0.097749531 1.6824911 22
0.10228205 -0.47155431 1.6408864 37
-0.39268208 0.044929147 1.5665231 48
-0.17351961 -0.47258627 1.5168781 177
-0.39790201 0.044528902 1.440663 85
-0.36734962 -0.47331154 1.3983479 12
-0.41339159 0.56471229 1.3541669 5
-0.4610281 0.039688885 1.3189702 7
-0.40744972 -0.4734616 1.2750447 7
-0.44984531 0.55923533 1.2303989 106
-0.51822901 0.035303235 1.1990788 7
-0.17079735 -0.47257611 1.1279552 34
-0.45688486 0.55817771 1.1049286 70
-0.54963446 0.032895327 1.0785348 95
-0.63058567 0.026688635 0.96492761 24
-0.64214659 0.025802314 0.84474474 36
-0.58890915 0.02988404 0.71358407 136
-0.60129166 0.028934717 0.61321926 132
-0.66160965 0.024310052 0.48175132 137
-0.6810379 0.022820413 0.36453533 133
-0.70230198 0.021190047 0.24831498 42
-0.70582008 0.020920336 0.12906551 24
0.29428625 0.070239902 1.6825511 21
-0.037634373 -0.49812675 1.643816 90
-0.42670727 0.017491043 1.5677016 50
-0.18146229 -0.49816287 1.5171871 127
-0.40002871 0.019442916 1.4408644 85
-0.36330605 -0.49820849 1.3981229 17
-0.36626768 0.54634178 1.3514347 57
-0.45122671 0.015697181 1.3184264 7
-0.41936779 -0.49822256 1.2759305 8
-0.47775221 0.52998972 1.2329475 139
-0.52037764 0.010638058 1.1994207 7
-0.53720903 -0.49825215 1.1615574 8
-0.53591251 0.0095014572 1.0772996 67
-0.64066982 0.0018373132 0.96637154 25
-0.63640118 0.0021495819 0.84419447 38
-0.58710098 0.0057564378 0.71358407 127
-0.59162283 0.0054255724 0.61186683 137
-0.65982103 0.00043612719 0.48175132 143
-0.67925453 -0.00098562241 0.36453533 133
-0.71608305 -0.0036800504 0.25186574 43
-0.83190298 -0.012153566 0.16050267 38
0.29622936 0.04302907 1.6825511 20
-0.43292093 -0.0077582896 1.5679635 78
-0.18150091 -0.52370954 1.5171871 155
-0.39825869 -0.0053439736 1.4408644 83
-0.33938122 -0.52319807 1.3967736 29
-0.37846708 0.51917315 1.3524282 77
-0.45743227 -0.0094655454 1.3189702 7
-0.43935013 -0.52287418 1.2774067 7
-0.53056431 -0.014559418 1.2004468 8
-0.48546314 -0.52272481 1.1568093 8
-0.51272392 0.49995947 1.111145 7
-0.53417635 -0.014810979 1.0772996 31
-0.64688253 -0.022661299 0.96733415 24
-0.62283278 -0.02098617 0.84254372 39
-0.58931971 -0.018651903 0.71420336 130
-0.59383392 -0.018966317 0.61254311 134
-0.66203451 -0.023716688 0.48250639 137
-0.67755365 -0.024797648 0.36453533 134
-0.71050072 -0.027092516 0.25097811 41
-0.83024073 -0.035432726 0.16050267 39
0.27803326 0.015849173 1.6828517 19
0.2501359 -0.55080926 1.6377896 83
0.075653553 0.55853856 1.5948877 6
-0.4073925 -0.029609144 1.5671778 214
-0.19760752 -0.54787385 1.517805 252
-0.39665747 -0.028897166 1.4408644 83
-0.33151054 -0.546996 1.3963238 46
-0.4028039 0.49168432 1.3541669 35
-0.44787979 -0.032294303 1.3184264 8
-0.41951942 -0.54641902 1.2759305 7
-0.45510817 0.48437583 1.2316732 7
-0.52501583 -0.03741008 1.2001048 7
-0.49752617 -0.54590762 1.157905 8
-0.49367523 0.47898692 1.1095909 7
-0.53657579 -0.038176715 1.0777113 32
-0.64137459 -0.045127124 0.96685284 24
-0.64104843 -0.045105487 0.84529501 38
-0.59170532 -0.041832983 0.71482277 140
-0.59621 -0.042131782 0.61321926 133
-0.65657282 -0.046135098 0.48175132 139
-0.67992115 -0.047683567 0.36535692 137
-0.69729519 -0.048835844 0.24831498 41
-0.82873678 -0.057553202 0.16050267 41
0.25982761 -0.012558281 1.6831522 17
-0.019747734 0.51860011 1.5975683 51
-0.40978384 -0.054620653 1.5673087 229
-0.19781923 -0.5733639 1.517805 67
-0.34121704 0.47482508 1.4784918 2
-0.4030304 -0.054196417 1.4412675 83
-0.35567904 -0.57177788 1.3976731 92
-0.37565088 0.47013611 1.3526766 10
-0.46620464 -0.058164746 1.319786 8
-0.40775871 -0.57125467 1.2750447 7
-0.45171499 0.45977831 1.2316732 8
-0.53139925 -0.062260032 1.2007889 7
-0.46188211 -0.5707109 1.1546178 8
-0.51791334 0.45076394 1.1123106 7
-0.52706385 -0.061987728 1.0768877 24
-0.63586569 -0.068822205 0.96637154 23
-0.63950205 -0.06905064 0.84529501 37
-0.59409142 -0.066198111 0.71544218 137
-0.59071922 -0.065986276 0.61254311 138
-0.65503073 -0.07002607 0.48175132 138
-0.6744771 -0.071247607 0.36453533 138
-0.703547 -0.073073655 0.25009036 41
-0.84274244 -0.081817389 0.16431332 35
0.28543663 -0.038225621 1.6827916 18
-0.040020943 0.48932868 1.5982115 71
-0.42822695 -0.080554903 1.5679635 177
-0.34181881 0.4493047 1.4786695 20
-0.40550566 -0.079207242 1.4414691 84
-0.34399319 -0.59687817 1.3969985 108
-0.40001106 0.44158739 1.3544152 9
-0.44877052 -0.081773371 1.3186982 7
-0.39209509 -0.59622699 1.2738638 11
-0.47212315 0.43202406 1.2335846 8
-0.51400089 -0.085642338 1.1994207 8
-0.47411966 -0.5951165 1.1557136 9
-0.51463747 0.42638588 1.1123106 7
-0.52160645 -0.086093426 1.0764759 33
-0.64233112 -0.093253911 0.96733415 24
-0.62222052 -0.092061132 0.84309399 38
-0.5926199 -0.090305448 0.71544218 143
-0.5971179 -0.090572208 0.61389554 143
-0.65357161 -0.093920648 0.48175132 138
-0.66911459 -0.094842523 0.36371362 138
-0.68652487 -0.095875174 0.24653959 40
-0.83356714 -0.10459664 0.16240799 29
0.28308392 -0.066986084 1.6828517 16
-0.41076994 -0.10558888 1.5674397 58
-0.32649803 0.42459464 1.4781361 36
-0.40401077 -0.10521281 1.4414691 82
-0.34838963 -0.62303704 1.3972234 106
-0.38868856 0.41657889 1.3539184 8
-0.47517681 -0.10917217 1.3206017 7
-0.40844965 -0.62200373 1.2750447 73
-0.43316364 0.41084653 1.2307175 10
-0.50457001 -0.11080748 1.1987367 7
-0.4506197 -0.62127829 1.153522 17
-0.51128912 0.40077692 1.1123106 8
-0.54397154 -0.11299956 1.0789467 26
-0.63692093 -0.11817083 0.96685284 23
-0.63263893 -0.11793259 0.84474474 37
-0.58327293 -0.11518613 0.71420336 135
-0.59172726 -0.11565647 0.61321926 133
-0.65605116 -0.11923513 0.48250639 139
-0.67549229 -0.12031674 0.36535692 138
-0.69287777 -0.12128401 0.24831498 41
-0.77397871 -0.12579611 0.14811838 28
0.26857185 -0.094989896 1.6830921 15
-0.20373583 0.41453707 1.6028221 50
-0.37350464 -0.12846419 1.5662612 54
-0.35106945 0.39606977 1.4793808 83
-0.39868641 -0.12977704 1.4412675 87
-0.30094862 -0.64899188 1.3945247 48
-0.4013772 0.38976407 1.3549119 9
-0.45791483 -0.13286486 1.319514 7
-0.4009428 -0.64692241 1.2744542 105
-0.46563387 0.38170993 1.2335846 10
-0.51121426 -0.13564363 1.1994207 8
-0.45905066 -0.64571977 1.1542525 94
-0.51213741 0.37588102 1.112699 7
-0.5426631 -0.13728315 1.0789467 62
-0.63959599 -0.14233673 0.96733415 22
-0.62739086 -0.14170039 0.84419447 37
-0.58986473 -0.13974401 0.71544218 133
-0.59436512 -0.13997862 0.61389554 145
-0.65476418 -0.14312747 0.48250639 139
-0.67811823 -0.14434505 0.36617863 134
-0.68770218 -0.14484468 0.24742734 43
-0.68736219 -0.14482695 0.12716019 26
0.29010248 0.44882822 1.7283639 6
0.24596882 -0.1232757 1.6834527 14
-0.24027967 0.38422817 1.6038942 50
-0.30436754 -0.15004128 1.5640351 63
-0.36385155 0.3691771 1.4800922 127
-0.39743757 -0.15456772 1.4412675 139
-0.40624046 0.36401421 1.3554087 8
-0.47262001 -0.15822417 1.3206017 6
-0.36959505 -0.67247379 1.2720923 77
-0.46259832 0.35714984 1.2335846 8
-0.53386879 -0.16120303 1.2014729 7
-0.43570995 -0.67087454 1.1520611 103
-0.50912237 0.35148329 1.112699 8
-0.55733538 -0.16234431 1.0805938 85
-0.62252378 -0.16551474 0.96540892 21
-0.63013887 -0.16588512 0.84474474 35
-0.59654331 -0.16425118 0.716681 149
-0.59315014 -0.16408616 0.61389554 122
-0.66140699 -0.16740581 0.48401642 140
-0.66909838 -0.16777989 0.36453533 139
-0.69039965 -0.16881588 0.24831498 41
-0.69780445 -0.16917598 0.13001812 25
0.34500551 0.42773634 1.7278892 7
0.25922298 -0.14977565 1.6832724 14
-0.24915028 0.3574726 1.6042159 69
-0.22331524 -0.17155573 1.5614161 128
-0.33705091 0.34707761 1.4790252 128
-0.39627504 -0.17936257 1.4412675 105
-0.40326786 0.33924693 1.3554087 7
-0.46748352 -0.18257666 1.3203298 7
-0.40025473 0.33960325 1.228806 10
-0.51680326 -0.18480277 1.2001048 7
-0.41644049 -0.69608212 1.1502349 72
-0.39154005 0.34063381 1.1014318 18
-0.18655252 -0.16989639 1.0422969 52
-0.62933207 -0.18988195 0.96637154 21
-0.63693047 -0.19022492 0.84584528 33
-0.59146595 -0.18817282 0.71606159 151
-0.59595823 -0.18837556 0.61457181 52
-0.66421223 -0.19145632 0.48477137 134
-0.67189074 -0.19180289 0.36535692 136
-0.68538857 -0.19241214 0.24742734 39
-0.68892956 -0.19257197 0.12811291 26
-0.16044712 0.3419947 1.7325627 5
0.24041796 -0.17769474 1.6835729 13
-0.24617958 -0.19795626 1.5622019 145
-0.33413744 0.32206887 1.4790252 119
-0.3991909 -0.20432755 1.4414691 88
-0.42814541 0.31128424 1.3571473 9
-0.44249392 -0.20613065 1.3186982 7
-0.31417942 0.32435846 1.2221162 41
-0.244977 -0.19790617 1.1768477 26
-0.33355951 -0.72341383 1.1425648 22
-0.31350136 0.32443625 1.0940499 41
-0.18544483 -0.19542733 1.0422969 52
-0.62432432 -0.21370193 0.96589023 20
-0.63589096 -0.21418357 0.84584528 33
-0.58647108 -0.21212578 0.71544218 154
-0.58703423 -0.2121492 0.61321926 50
-0.65140247 -0.21482947 0.48250639 145
-0.67476797 -0.21580237 0.36617863 143
-0.6882534 -0.21636391 0.24831498 39
-0.68401623 -0.21618748 0.12716019 26
0.25743103 -0.20275238 1.6833324 12
-0.26335192 0.30588663 1.6047519 96
-0.26519156 -0.22277814 1.5628566 156
-0.15273428 0.31820524 1.4710231 55
-0.39026546 -0.22757068 1.441066 91
-0.42152643 0.28827196 1.356899 8
-0.40566826 -0.22816086 1.3162509 7
-0.3075223 0.30096763 1.2217976 49
-0.16436625 -0.21891469 1.1700075 46
0.73652744 -0.78411698 1.0443149 16
-0.19606495 0.31337982 1.0827827 37
-0.16459608 -0.21892351 1.0402379 55
-0.63134813 -0.23680845 0.96685284 21
-0.61122608 -0.23603743 0.84254372 33
-0.58160591 -0.23490244 0.71482277 166
-0.59005737 -0.23522627 0.61389554 49
-0.65441942 -0.23769251 0.48326135 141
-0.68168688 -0.23873731 0.36782193 151
-0.69514561 -0.23925298 0.25009036 37
-0.70252275 -0.23953569 0.13192344 26
-0.16681623 0.29073167 1.7326722 8
0.28240395 -0.22899777 1.6829718 12
-0.2367301 0.28319293 1.6041087 86
-0.23629999 -0.2470603 1.56194 192
-0.18965292 0.28826922 1.4728013 44
-0.39334965 -0.25252917 1.4412675 91
-0.42278719 0.26313049 1.3571473 8
-0.21332312 -0.24626017 1.3031987 34
-0.31666327 0.27457374 1.2227533 66
-0.17139578 -0.24480015 1.1706915 43
0.72354507 -0.81241262 1.0454105 12
-0.14181423 0.29342759 1.0777318 39
-0.16763592 -0.24466926 1.0406498 51
-0.63840818 -0.26106268 0.96781546 21
-0.62618542 -0.26063704 0.84474474 31
-0.5925703 -0.2594665 0.716681 144
-0.59705448 -0.25962263 0.61524796 47
-0.65354538 -0.2615898 0.48326135 141
-0.6690793 -0.26213074 0.36535692 139
-0.68258286 -0.26260096 0.24742734 42
-0.69777203 -0.26312989 0.13097084 27
0.28734207 -0.25739908 1.6829118 11
-0.23390818 0.25656629 1.6041087 35
-0.22743034 -0.27343592 1.5616781 252
-0.21860933 0.25815928 1.4742239 40
-0.3964839 -0.2787025 1.4414691 88
-0.42400885 0.23677248 1.3573956 8
-0.16856527 -0.27160209 1.3002076 40
-0.30990648 0.24865311 1.2224348 71
-0.17050982 -0.27166265 1.1706915 44
-0.162714 0.26397926 1.080063 42
-0.17470264 -0.27179331 1.0414734 40
-0.62567186 -0.28584242 0.96637154 21
-0.62535429 -0.28583255 0.84474474 29
-0.59173536 -0.28478521 0.716681 141
-0.61198282 -0.28541601 0.61795294 46
-0.65271807 -0.28668499 0.48326135 138
-0.67216635 -0.28729087 0.36617863 136
-0.68955517 -0.28783262 0.24920273 43
-0.68530083 -0.28770009 0.12811291 27
0.29610062 -0.28300005 1.6827916 11
-0.18767643 0.23687673 1.6029292 37
-0.20673704 -0.29699624 1.5610232 252
-0.2638464 0.2292009 1.4763578 36
-0.37981558 -0.30181378 1.440663 92
-0.42557621 0.21290302 1.3576441 7
-0.17582607 -0.29613584 1.3007514 36
-0.30746317 0.22480553 1.2224348 79
-0.17377663 -0.2960788 1.1710335 47
-0.15625954 0.24004263 1.0796745 42
-0.18591738 -0.29641676 1.0427088 51
-0.61309147 -0.3083069 0.96492761 20
-0.60883999 -0.30818856 0.84254372 26
-0.59895992 -0.30791357 0.71791983 144
-0.59160471 -0.30770883 0.61457181 45
-0.65204811 -0.30939123 0.48326135 138
-0.66367197 -0.30971479 0.36453533 140
-0.67719269 -0.31009111 0.24653959 43
-0.67686701 -0.31008208 0.12620759 26
0.30080843 -0.31011775 1.6827314 11
-0.24086618 0.20592892 1.6044303 68
-0.19807911 -0.32226136 1.5607615 253
-0.24145889 0.20587128 1.4754686 41
-0.39114809 -0.32696092 1.4412675 91
-0.42710495 0.18781775 1.3578925 8
-0.15920067 -0.32131499 1.2996638 38
-0.30894613 0.19930828 1.2227533 71
-0.17310905 -0.32165354 1.1710335 45
-0.15768385 0.21401811 1.080063 43
-0.16536379 -0.32146502 1.0406498 45
-0.63231277 -0.3328312 0.96733415 14
-0.62009478 -0.33253378 0.84419447 22
-0.58648014 -0.33171558 0.71606159 140
-0.58703375 -0.33172905 0.61389554 45
-0.6474967 -0.33320081 0.48250639 136
-0.66304922 -0.33357936 0.36453533 142
-0.69606638 -0.33438304 0.25097811 44
-0.68401337 -0.33408964 0.12811291 27
0.32941437 -0.33676547 1.6823107 10
-0.3698225 0.16827208 1.6079686 76
-0.19750357 -0.34775111 1.5607615 252
-0.25097466 0.17941111 1.4760022 43
-0.38659334 -0.35169345 1.441066 88
-0.43667126 0.16200668 1.3586376 8
-0.17458105 -0.3472732 1.3007514 36
-0.31051874 0.17383033 1.2230718 74
-0.17253113 -0.34723046 1.1710335 46
-0.15523624 0.18838412 1.080063 41
-0.18069649 -0.34740072 1.0422969 29
-0.61192131 -0.35639125 0.96492761 14
-0.62747431 -0.3567155 0.84529501 22
-0.58198357 -0.3557671 0.71544218 147
-0.58648872 -0.35586101 0.61389554 43
-0.65481186 -0.35728547 0.48401642 139
-0.68207932 -0.35785398 0.36864364 134
-0.68383217 -0.35789055 0.24831498 43
-0.6718235 -0.35764015 0.12525499 27
0.46190166 -0.36180592 1.6803272 1
-0.40337467 0.14014584 1.6089336 106
-0.20900869 -0.37345088 1.5611542 212
-0.27650595 0.15158993 1.477247 39
-0.3821249 -0.37645563 1.4408644 81
-0.42645121 0.13806421 1.3581408 8
-0.1621232 -0.37263706 1.2999356 33
-0.31218147 0.14837188 1.2233905 82
-0.18399715 -0.37301672 1.1720595 49
-0.31147671 0.14843541 1.0956039 40
-0.43878794 -0.37743911 1.0690637 12
-0.60352087 -0.38029838 0.963965 13
-0.62305498 -0.38063741 0.84474474 19
-0.58942509 -0.3800537 0.716681 144
-0.58602762 -0.37999475 0.61389554 35
-0.65042734 -0.38111252 0.48326135 132
-0.65814018 -0.38124639 0.36371362 138
-0.69507647 -0.3818875 0.25097811 42
-0.67913723 -0.38161084 0.12716019 26
-0.40904331 0.11344165 1.609148 129
-0.2205863 -0.40033883 1.561547 185
-0.27018547 0.12545443 1.4770691 39
-0.36574125 -0.40232614 1.4400584 71
-0.44007015 0.11075759 1.3591343 9
-0.15372372 -0.39942342 1.2993917 24
-0.30588055 0.12236631 1.2230718 79
-0.18358088 -0.39983219 1.1720595 48
-0.29725027 0.12311298 1.0944384 48
-0.53784561 -0.4046824 1.0793586 10
-0.59915781 -0.40552181 0.96348369 13
-0.60285521 -0.40557241 0.84199345 17
-0.58508015 -0.40532908 0.71606159 136
-0.55803967 -0.40495887 0.60916197 63
-0.65003729 -0.40621838 0.48326135 139
-0.66166544 -0.40637758 0.36453533 139
-0.67908955 -0.40661612 0.24742734 40
-0.67486429 -0.40655828 0.12620759 27
0.0867486 -0.42261794 1.6859772 13
-0.39499092 0.08967948 1.6088264 82
-0.2042923 -0.42558646 1.5610232 152
-0.27999353 0.099223733 1.4776026 42
-0.36544371 -0.42723015 1.4400584 84
-0.42206669 0.087432384 1.3581408 9
-0.37289667 -0.42730618 1.3143475 10
-0.15936422 -0.42512822 1.1700075 49
-0.29908609 0.097639143 1.0948269 47
-0.53755522 -0.4289856 1.0793586 10
-0.57107496 -0.42932749 0.96011448 20
-0.56691217 -0.42928505 0.83704108 39
-0.57293701 -0.4293465 0.71420336 135
-0.58928823 -0.42951328 0.61457181 129
-0.64975166 -0.43012998 0.48326135 137
-0.65746498 -0.43020865 0.36371362 142
-0.6749053 -0.43038654 0.24653959 39
-0.68234921 -0.43046245 0.12811291 27
0.054977417 -0.44931597 1.6864581 64
-0.40493393 0.063924193 1.609148 70
-0.21607018 -0.45113432 1.5614161 179
-0.269979 0.074650586 1.477247 41
-0.35724306 -0.45208144 1.4396553 96
-0.42801857 0.062089384 1.3586376 10
-0.40062141 -0.45237243 1.3162509 9
-0.49249983 0.056964338 1.2383631 10
-0.16313314 -0.4507792 1.1703495 47
-0.30101204 0.072184026 1.0952156 47
-0.52939224 -0.45323631 1.0785348 10
-0.59866667 -0.45370105 0.96348369 48
-0.59047842 -0.45364612 0.84034264 50
-0.576684 -0.45355359 0.71482277 139
-0.56542969 -0.4534781 0.6105144 143
-0.64954948 -0.45404243 0.48326135 137
-0.66117764 -0.45412043 0.36453533 141
-0.69030476 -0.45431584 0.25009036 38
-0.68603277 -0.45428717 0.12906551 26
0.023111343 -0.47579125 1.6869389 87
-0.43091822 0.037033856 1.6098986 70
-0.18396091 -0.4764576 1.5603685 107
-0.28395462 0.04819864 1.4779582 43
-0.35712004 -0.47701478 1.4396553 96
-0.43804216 0.036492646 1.3593827 10
-0.41646147 -0.47720575 1.3173386 7
-0.49854946 0.031895876 1.2390003 10
-0.16300631 -0.47639015 1.1703495 20
-0.5292716 -0.47756878 1.0785348 10
-0.59060526 -0.47776613 0.96252108 51
-0.58243513 -0.47773984 0.8392421 37
-0.56866121 -0.47769552 0.71358407 140
-0.56136703 -0.47767204 0.60983813 144
-0.63764668 -0.47791749 0.48099637 138
-0.66105938 -0.47799283 0.36453533 138
-0.68238592 -0.47806147 0.24831498 37
-0.68202972 -0.47806033 0.12811291 25
0.011151791 -0.50073624 1.6871192 130
-0.42518759 0.013878405 1.6097913 52
-0.17592764 -0.50071788 1.5601066 96
-0.2702198 0.025134504 1.4774247 48
-0.35308838 -0.50070053 1.4394537 103
-0.42037439 0.014228046 1.3583891 10
-0.40844345 -0.50069511 1.3167948 7
-0.49284792 0.0089639425 1.2386818 10
-0.46585512 -0.50068945 1.1963427 8
-0.53155184 0.0061526895 1.1181384 9
-0.52525663 -0.50068367 1.0781231 10
-0.59454012 -0.50067687 0.96300238 71
-0.57447481 -0.50067884 0.83814162 31
-0.55676985 -0.50068057 0.71172583 137
-0.56527376 -0.50067973 0.6105144 144
-0.64546728 -0.50067186 0.48250639 138
-0.65710926 -0.50067073 0.36371362 141
-0.67455006 -0.500669 0.24653959 38
-0.68587923 -0.50066793 0.12906551 25
0.035095692 -0.52835643 1.6867586 92
-0.45526457 -0.01425603 1.6106491 184
-0.14399672 -0.52768242 1.5590591 121
-0.28429079 -0.0024671257 1.4781361 58
-0.35313845 -0.5268954 1.4394537 105
-0.4304862 -0.012547493 1.3591343 10
-0.39652109 -0.52673215 1.315979 7
-0.49102926 -0.016722023 1.2386818 9
-0.44996309 -0.52653104 1.1949747 9
-0.53768587 -0.019939125 1.1189156 9
-0.52132797 -0.52626246 1.0777113 10
-0.58664751 -0.52601665 0.96203977 82
-0.57056189 -0.52607715 0.83759135 30
-0.56472206 -0.52609915 0.71296465 140
-0.55349588 -0.52614141 0.6084857 148
-0.63765955 -0.52582467 0.48099637 145
-0.6571579 -0.52575129 0.36371362 142
-0.67459869 -0.52568567 0.24653959 37
-0.67427301 -0.52568686 0.12620759 25
0.062946796 -0.5548619 1.6863378 91
-0.4017415 -0.035455257 1.6092552 225
-0.10416126 -0.55364972 1.5577496 88
-0.29456043 -0.028440803 1.4786695 79
-0.34528637 -0.55190057 1.4390507 86
-0.43281078 -0.03748861 1.3593827 10
-0.38867664 -0.55158579 1.3154352 7
-0.49734259 -0.041711867 1.2393188 8
-0.46604013 -0.55102462 1.1963427 8
-0.54399824 -0.044765264 1.1196926 9
-0.49759007 -0.55079573 1.0752406 10
-0.566926 -0.55029279 0.95963317 70
-0.58258152 -0.55017924 0.8392421 29
-0.54509735 -0.55045116 0.70986772 141
-0.54968739 -0.55041784 0.60780954 144
-0.63386393 -0.54980719 0.4802413 146
-0.65728951 -0.54963732 0.36371362 146
-0.67082977 -0.54953909 0.24565196 39
-0.68217421 -0.54945678 0.12811291 33
-0.43608141 -0.062460601 1.6102202 202
-0.040431023 -0.58015317 1.5556545 51
-0.28498125 -0.05310142 1.4783139 127
-0.30955887 -0.57726139 1.4372368 44
-0.42725515 -0.061913878 1.3591343 10
-0.37692785 -0.57653749 1.3146194 10
-0.51170444 -0.067144662 1.2405932 10
-0.45430517 -0.57570606 1.1953166 7
-0.57026529 -0.070771933 1.1224122 10
-0.51372385 -0.57506764 1.0768877 9
-0.56317329 -0.57453632 0.95915186 71
-0.55110407 -0.57466596 0.83484006 22
-0.54926729 -0.57468569 0.71048701 139
-0.55384779 -0.57463646 0.6084857 141
-0.64193535 -0.57369 0.48175132 143
-0.64576101 -0.57364887 0.36124861 138
-0.67104387 -0.57337725 0.24565196 70
-0.65908051 -0.57350576 0.12239707 33
-0.43060541 -0.086887866 1.610113 55
-0.27149725 -0.077590078 1.4777805 130
-0.29389524 -0.60258788 1.4364307 42
-0.42178345 -0.086372346 1.358886 10
-0.38921022 -0.60123098 1.3154352 69
-0.49431372 -0.090610772 1.2393188 10
-0.44265747 -0.60047007 1.1942905 7
-0.533041 -0.092873842 1.1189156 9
-0.50209332 -0.59962392 1.0756524 9
-0.53568172 -0.59914577 0.95578271 82
-0.55140734 -0.5989219 0.83484006 19
-0.53376484 -0.59917307 0.70800948 142
-0.55020857 -0.59893894 0.60780954 139
-0.64616203 -0.59757292 0.48250639 138
-0.64605999 -0.59757435 0.36124861 144
-0.67524195 -0.59715897 0.24653959 39
-0.65549374 -0.59744006 0.12144434 33
-0.34143972 -0.1054928 1.6077541 184
-0.27013683 -0.10156327 1.4777805 78
-0.28628635 -0.62662411 1.4360276 20
-0.42045069 -0.1098471 1.358886 10
-0.38559484 -0.62488097 1.3151633 111
-0.48901367 -0.11362559 1.2390003 9
-0.42709064 -0.62415254 1.1929225 11
-0.53967953 -0.1164178 1.1196926 10
-0.47461557 -0.62331831 1.0727698 10
-0.54001951 -0.62217027 0.95626402 105
-0.53988981 -0.62217259 0.83318925 11
-0.53413248 -0.62227362 0.70800948 139
-0.54663324 -0.62205422 0.60713327 134
-0.62688589 -0.62064552 0.47873127 142
-0.64642143 -0.62030262 0.36124861 146
-0.67170143 -0.61985886 0.24565196 114
-0.67139149 -0.61986428 0.12525499 33
-0.40799093 -0.13398525 1.6095769 61
-0.26080799 -0.12638924 1.4774247 51
-0.4271059 -0.1349718 1.3593827 10
-0.36612415 -0.65013415 1.3138037 95
-0.48770761 -0.1380994 1.2390003 10
-0.45147371 -0.64833796 1.1949747 84
-0.48669767 -0.13804728 1.1146417 12
-0.47508907 -0.64784098 1.0727698 18
-0.5523982 -0.64621395 0.95770794 57
-0.54035854 -0.64646733 0.83318925 6
-0.53065109 -0.64667165 0.70739007 142
-0.55892658 -0.64607656 0.60916197 128
-0.61949444 -0.64480191 0.47722125 146
-0.63905478 -0.64439023 0.35960519 140
-0.66436291 -0.6438576 0.24387658 147
-0.67962027 -0.64353657 0.12716019 32
-0.27096367 -0.15221035 1.6059314 90
-0.27152252 -0.15223727 1.4779582 43
-0.42587471 -0.15966317 1.3593827 9
-0.4025979 -0.67415422 1.3162509 21
-0.48648691 -0.16257924 1.2390003 9
-0.4480505 -0.67303896 1.1946325 139
-0.24688816 -0.15105209 1.0913303 44
-0.46769238 -0.672557 1.0719461 92
-0.52516317 -0.67114675 0.95433879 68
-0.49734354 -0.6718294 0.82713634 6
-0.52330446 -0.67119241 0.70615125 141
-0.54371357 -0.67069161 0.606457 132
-0.61218786 -0.66901135 0.47571123 144
-0.63960075 -0.66833872 0.35960519 141
-0.65320921 -0.66800481 0.24121344 150
-0.66851139 -0.6676293 0.12430227 34
-0.34169483 -0.18065444 1.6078614 127
-0.26636076 -0.17729357 1.4777805 51
-0.43270683 -0.18471462 1.3598795 10
-0.47340202 -0.18653011 1.2380446 8
-0.41284323 -0.698659 1.1915544 91
-0.16617155 -0.17282397 1.0835598 53
-0.46833754 -0.69710344 1.0719461 105
-0.51786423 -0.69571519 0.95337617 63
-0.47422361 -0.69693846 0.82383478 11
-0.50814342 -0.69598764 0.70367372 134
-0.54041052 -0.6950832 0.60578084 130
-0.60496664 -0.6932736 0.4742012 139
-0.64414358 -0.69217545 0.3604269 139
-0.66553402 -0.69157588 0.24387658 184
-0.66137123 -0.69169253 0.12239707 35
-0.40050077 -0.20934665 1.6094697 252
-0.24925566 -0.20315465 1.4770691 41
-0.41564226 -0.20996657 1.358886 10
-0.26115084 -0.20364162 1.2211604 31
-0.34988546 -0.72665215 1.1860821 44
-0.16502142 -0.19970611 1.0835598 56
-0.43331671 -0.72400743 1.06824 56
-0.47893858 -0.72256124 0.9485631 55
-0.46311283 -0.72306293 0.82218403 82
-0.48521042 -0.72236246 0.69995737 113
-0.51358938 -0.72146285 0.60104716 120
-0.60964775 -0.71841788 0.47495627 129
-0.66054487 -0.7168045 0.36371362 45
-0.65458679 -0.71699339 0.24121344 56
-0.65435362 -0.71700072 0.12049174 34
-0.33160162 -0.23158702 1.6076469 121
-0.25624943 -0.22876555 1.4774247 40
-0.41068411 -0.23454821 1.3586376 10
-0.17250156 -0.22562969 1.2141519 49
-0.12821341 -0.22397134 1.080063 43
-0.33871031 -0.75203216 1.058357 17
-0.41229439 -0.74944246 0.94038081 14
-0.42037964 -0.74915791 0.81613111 63
-0.44653559 -0.74823737 0.69376338 96
-0.50652552 -0.74612617 0.59969473 109
-0.59082365 -0.74315935 0.47118115 37
-0.62222052 -0.7420544 0.35549688 27
-0.63589668 -0.7415731 0.23677504 34
-0.63962317 -0.74144197 0.11668122 35
-0.27480459 -0.25345093 1.6061459 82
-0.24340963 -0.25237963 1.4768913 40
-0.40585232 -0.25792277 1.3583891 10
-0.17960167 -0.2502023 1.2147892 53
-0.4575758 -0.25968775 1.1123106 10
-0.29412127 -0.77752984 0.92594153 4
-0.56811714 -0.76697701 0.46665108 26
-0.59959078 -0.76576483 0.35056686 28
-0.64063358 -0.76418412 0.23766267 31
-0.61328793 -0.76523733 0.11001265 29
-0.25400448 -0.27806121 1.6056098 88
-0.23060703 -0.27734458 1.4763578 38
-0.40505123 -0.28268763 1.3583891 9
-0.18276024 -0.27587903 1.2151077 80
-0.46871805 -0.28463769 1.1134762 10
1.7503843 -0.88861513 0.84175271 36
-0.52591991 -0.79298604 0.45834601 14
-0.57709217 -0.79083622 0.34563673 7
-0.62990665 -0.78861743 0.23499966 16
-0.20930529 -0.30216289 1.6044303 67
-0.22587919 -0.3026126 1.47618 38
-0.4163084 -0.30778003 1.3591343 10
-0.18202257 -0.30142254 1.2151077 65
-0.48392725 -0.3096149 1.1150303 10
0.70761776 -0.87351286 0.94964308 25
-0.14067268 -0.32728952 1.6026076 67
-0.21721506 -0.32908583 1.4758244 39
-0.39569521 -0.33327445 1.3578925 9
-0.18134356 -0.328244 1.2151077 58
-0.48725653 -0.33542323 1.1154188 10
0.65453148 -0.90105218 0.95499641 7
-0.20407867 -0.35425738 1.6043231 72
-0.19668627 -0.3541097 1.4749353 40
-0.39914799 -0.35815406 1.3581408 10
-0.18078852 -0.35379213 1.2151077 62
-0.48672438 -0.35990345 1.1154188 9
-0.23559856 -0.38025323 1.6051809 55
-0.16425705 -0.37907723 1.4735126 42
-0.40268755 -0.38300753 1.3583891 9
-0.17234945 -0.37921059 1.2144705 68
-0.47831726 -0.38425422 1.1146417 8
-0.21123552 -0.40529993 1.6045375 71
-0.13990641 -0.40437317 1.4724457 53
-0.39833069 -0.40773079 1.3581408 9
-0.1639986 -0.40468621 1.2138333 72
-0.26697683 -0.40602416 1.0940499 31
-0.23893785 -0.43100917 1.605288 64
-0.13562012 -0.43002751 1.4722679 57
-0.4060359 -0.43259686 1.3586376 9
-0.15972328 -0.43025655 1.2135148 63
-0.44185209 -0.43293718 1.111145 10
-0.21875668 -0.45496476 1.6047519 96
-0.30725574 -0.45551211 1.4799143 89
-0.3978672 -0.45607257 1.3581408 10
-0.47749805 -0.45656508 1.1146417 9
-0.21864414 -0.48038149 1.6047519 59
-0.33112001 -0.48068455 1.4809813 126
-0.38578081 -0.48083183 1.3573956 9
-0.4425149 -0.48098469 1.2361331 10
-0.49729395 -0.48113227 1.1165843 8
-0.10666132 -0.50717795 1.6017498 53
-0.32310534 -0.50696784 1.4806256 130
-0.38176537 -0.50691086 1.3571473 9
-0.43053055 -0.50686353 1.2351775 10
-0.48930979 -0.50680643 1.1158073 8
-0.038756847 -0.53328896 1.5999271 88
-0.31917763 -0.53203785 1.4804478 144
-0.37384892 -0.53179395 1.3566506 9
-0.44255972 -0.53148735 1.2361331 10
-0.48141432 -0.53131402 1.1150303 8
-0.018926144 -0.5594908 1.599391 75
-0.29136229 -0.55732429 1.479203 85
-0.37001085 -0.55669892 1.3564022 9
-0.43872547 -0.55615246 1.2358146 9
-0.48554754 -0.55578011 1.1154188 7
0.028815269 -0.58483952 1.5981044 103
-0.055840015 -0.58388561 1.4687114 37
-0.35826206 -0.58047771 1.3556571 14
-0.42300224 -0.57974815 1.2345403 9
1.8011913 -1.9691073 0.9365685 89
-0.46586704 -0.57926512 1.1134762 8
-0.2919383 -0.60764873 1.479203 22
-0.37457228 -0.60641462 1.3566506 86
-0.40739441 -0.60592443 1.2332661 14
1.764286 -1.9981014 0.93949044 103
-0.44630194 -0.60534334 1.1115335 7
-0.3470459 -0.63180137 1.3549119 114
-0.4397006 -0.63009411 1.2358146 85
-0.44671249 -0.62996495 1.1115335 24
-0.33158445 -0.65711915 1.3539184 74
-0.4083066 -0.65543753 1.2332661 105
-0.45914888 -0.65432316 1.112699 109
-0.37298727 -0.67985922 1.2303989 74
-0.41990137 -0.67867529 1.1088139 99
-0.33380175 -0.7058813 1.2272133 33
-0.40465069 -0.70384586 1.1072598 44
-0.30990887 -0.73168939 1.0979352 13
0.73554516 -0.79559755 0.99575305 14
0.71059418 -0.82340133 0.99808419 15
0.70146179 -0.85171878 0.99886125 16
0.70422745 -0.87909794 0.99847275 19
1.9400358 -1.9640294 0.98018885 106
1.880022 -1.9865927 0.98497707 100
1.962719 -1.9996989 0.80839735 94
1.7368231 -1.9986233 0.99694765 98
1.9278536 -1.968883 1.0376649 104
1.9092417 -1.9659834 0.87064797 75
1.8478537 -1.9898576 1.0437176 104
1.7821913 -1.9793922 0.88269228 71
0 0 0 1 0 0 0 1 0 0 0 1 0 0 0 0 0 1263 1 0 0
