ply
format ascii 1.0
comment PCL generated
element vertex 159
property float x
property float y
property float z
property float intensity
element camera 1
property float view_px
property float view_py
property float view_pz
property float x_axisx
property float x_axisy
property float x_axisz
property float y_axisx
property float y_axisy
property float y_axisz
property float z_axisx
property float z_axisy
property float z_axisz
property float focal
property float scalex
property float scaley
property float centerx
property float centery
property int viewportx
property int viewporty
property float k1
property float k2
end_header
-0.85881042 0.59543896 0.26986861 3.6280589
-0.87670612 0.56398892 0.27299762 6.851862
-0.89470482 0.53266174 0.27612686 10.544775
-0.89307976 0.50248504 0.27612686 9.3731337
-0.8915472 0.47229883 0.27612686 8.1636972
-0.89011288 0.44211251 0.27612686 11.003243
-0.8887701 0.41191724 0.27612686 6.3268647
-0.89739323 0.38133067 0.27769148 8.7190628
-0.90611362 0.35080224 0.27925599 10.526303
-0.91487312 0.31865501 0.28082049 10.096398
-0.89417553 0.28913701 0.27769148 9.7251081
-0.90323353 0.26036406 0.27925599 10.983968
-0.90242195 0.2285405 0.27925599 13.296384
-0.90175152 0.19838956 0.27925599 15.789454
-0.89130116 0.16840516 0.27769148 15.803301
-0.8908186 0.13821958 0.27769148 16.856853
-0.88055515 0.10813908 0.27612686 18.076757
-0.87038517 0.078000024 0.27456224 21.108051
-0.88006687 0.047700226 0.27612686 25.307459
-0.87996387 0.017475381 0.27612686 25.307459
-0.87995625 -0.012745097 0.27612686 31.634325
-0.88004398 -0.042970002 0.27612686 31.634325
-0.88022614 -0.073189884 0.27612686 31.634325
-0.88050365 -0.10340906 0.27612686 31.634325
-0.88087559 -0.13363183 0.27612686 28.1194
-0.87146759 -0.16401689 0.27456224 25.32966
-0.8819046 -0.19406688 0.27612686 25.307459
-0.87268829 -0.22451229 0.27456224 19.484356
-0.8635664 -0.25501752 0.27299762 18.108492
-0.86441517 -0.28528994 0.27299762 12.072328
-0.86535931 -0.31555957 0.27299762 10.563287
-0.86639786 -0.34582609 0.27299762 9.3895884
-0.85766315 -0.3764745 0.27143323 9.3978291
-0.86876106 -0.40634859 0.27299762 7.9224653
-0.87008572 -0.4366039 0.27299762 8.1780281
-0.86164093 -0.46733329 0.27143323 8.1852064
-0.87301922 -0.49710149 0.27299762 7.0421915
-0.86476707 -0.52788329 0.27143323 7.6891327
-0.85661221 -0.5587219 0.26986861 7.936379
-0.8584156 -0.58901465 0.26986861 9.0701475
-0.86031437 -0.61930168 0.26986861 9.0701475
-0.84259701 -0.65091097 0.26673949 10.60043
-0.83483791 -0.68194246 0.26517498 10.609741
-0.8370285 -0.71230304 0.26517498 9.0940638
-0.82946587 -0.74341363 0.26361048 7.281642
-0.8318491 -0.77379072 0.26361048 5.4224992
-0.81464195 -0.80579811 0.26048124 3.4040749
-0.69237137 0.60400009 0.59352779 3.4860518
-0.84905815 0.56391925 0.61302626 155.23206
-0.76805115 0.53798169 0.60327697 156.15367
-0.75494957 0.47730848 0.60205829 79.762604
-0.72375298 0.44805622 0.59840238 45.680367
-0.72239399 0.41733831 0.59840238 53.293758
-0.73104858 0.3862288 0.59962106 63.904968
-0.72988319 0.35553873 0.59962106 79.881218
-0.73867702 0.32280713 0.60083961 79.821877
-0.73771095 0.29214132 0.60083961 79.821877
-0.72696686 0.26343933 0.59962106 106.50829
-0.73606873 0.23079674 0.60083961 79.821877
-0.73539162 0.20012322 0.60083961 79.821877
-0.73481178 0.16944306 0.60083961 79.821877
-0.73432732 0.1387659 0.60083961 79.821877
-0.74386501 0.10797282 0.60205829 106.35014
-0.73364735 0.077403069 0.60083961 79.821877
-0.74337864 0.04667519 0.60205829 106.35014
-0.74327946 0.016020894 0.60205829 106.35014
-0.7432785 -0.014628932 0.60205829 79.762604
-0.74337292 -0.045283258 0.60205829 106.35014
-0.7435627 -0.075932488 0.60205829 106.35014
-0.73392391 -0.1066894 0.60083961 106.42917
-0.73430824 -0.13737264 0.60083961 106.42917
-0.72486305 -0.16822068 0.59962106 106.50829
-0.72544098 -0.19893061 0.59962106 106.50829
-0.72611427 -0.22963725 0.59962106 79.881218
-0.72688389 -0.26034164 0.59962106 106.50829
-0.72774982 -0.29104346 0.59962106 79.881218
-0.72871208 -0.32174242 0.59962106 79.881218
-0.70993233 -0.3531538 0.5971837 80.00016
-0.72100925 -0.38351941 0.59840238 79.940643
-0.71234512 -0.4146592 0.5971837 80.00016
-0.70378113 -0.44585723 0.59596503 80.059753
-0.69531631 -0.4771131 0.59474647 80.119438
-0.68695068 -0.50842655 0.59352779 80.179199
-0.68859673 -0.53925264 0.59352779 80.179199
-0.68043041 -0.57064915 0.59230912 80.239052
-0.68227196 -0.60149539 0.59230912 80.239052
-0.67430496 -0.63297379 0.59109032 80.298981
-0.68624401 -0.66316974 0.59230912 80.239052
-0.68837738 -0.69399726 0.59230912 64.191238
-0.70050335 -0.72408646 0.59352779 64.143356
-0.69293118 -0.75563133 0.59230912 80.239052
-0.68545914 -0.78723109 0.59109032 80.298981
-0.66819954 -0.81970966 0.58865309 12.867056
-0.16108418 0.66751558 0.89377916 9.0416794
-0.3777895 0.62160015 0.9129492 6.3291078
-0.61280918 0.54483277 0.93386197 1.7200137
-0.63104248 0.51273674 0.93560469 3.9332442
-0.59963036 0.48318398 0.93299061 13.557422
-0.56830597 0.45344365 0.93037653 14.500751
-0.63660145 0.4192757 0.93647605 10.292008
-0.64528751 0.38789225 0.93734747 11.365062
-0.67398262 0.35585582 0.93996149 8.2826767
-0.69277096 0.32261181 0.94170427 10.23618
-0.71172142 0.29120937 0.94344699 105.096
-0.65110397 0.26204407 0.93821883 10.78702
-0.70012474 0.22993515 0.94257557 4.7725616
-0.72933197 0.19854154 0.94518977 7.3856273
-0.728755 0.16784233 0.94518977 8.2378149
-0.72827625 0.13714616 0.94518977 6.4903994
-0.73785496 0.10633545 0.94606107 10.189983
-0.72760773 0.075745314 0.94518977 11.899066
-0.72741795 0.045045972 0.94518977 13.386449
-0.72732449 0.014341533 0.94518977 8.9242992
-0.7273283 -0.01635839 0.94518977 8.9242992
-0.72742653 -0.047062844 0.94518977 13.386449
-0.71766186 -0.077841416 0.94431835 11.90983
-0.71795368 -0.10857127 0.94431835 7.9398866
-0.71834278 -0.1393047 0.94431835 11.282998
-0.70886803 -0.17020522 0.94344699 8.9404573
-0.6994915 -0.20116994 0.94257557 6.3166256
-0.71013165 -0.23172235 0.94344699 3.3526716
-0.71090794 -0.26247695 0.94344699 4.8766136
-0.71178055 -0.29322892 0.94344699 4.9900231
-0.70279312 -0.32430762 0.94257557 2.7891595
-0.69390583 -0.35544562 0.94170427 2.5898771
-0.68511581 -0.38664272 0.94083291 3.9119015
-0.69633198 -0.41705173 0.94170427 3.9083598
-0.68773937 -0.4483034 0.94083291 4.137588
-0.68919659 -0.47912729 0.94083291 5.1227279
-0.69075108 -0.50994641 0.94083291 105.38184
-0.61282539 -0.54514802 0.93386197 7.4731636
-0.60464191 -0.57678646 0.93299061 3.7399786
-0.59655952 -0.60848171 0.93211919 5.0492101
-0.58857918 -0.64023334 0.93124789 6.3915744
-0.5409441 -0.67473471 0.92689103 10.395469
-0.53317451 -0.70672321 0.92601967 19.863985
-0.56524849 -0.73582393 0.92863375 5.1882753
-0.4906292 -0.80461681 0.92166281 1.0866466
-0.43902683 0.55264294 1.2713146 160.6492
-0.5071516 0.5174247 1.2749825 159.85556
-0.44572735 0.48893622 1.2718387 21.850651
-0.29850006 0.30172098 1.264503 2.4704223
-0.337533 0.26861227 1.2665989 5.6912923
-0.35670757 0.2362216 1.2676468 11.772346
-0.34603024 0.20455743 1.2671229 10.995339
-0.35542202 0.17248417 1.2676468 10.633087
-0.35492992 0.14061514 1.2676468 9.6948738
-0.35453796 0.10873993 1.2676468 8.4519405
-0.36423397 0.076792806 1.2681708 4.1173944
-0.36763191 -0.27345097 1.2681708 1.8609693
-0.32861423 -0.30648443 1.2660749 5.1614051
-0.3595686 -0.33744085 1.2676468 10.300803
-0.36067867 -0.36929622 1.2676468 9.4178772
-0.36188984 -0.40114796 1.2676468 9.4178772
-0.35322285 -0.43342191 1.2671229 8.6805325
-0.34465885 -0.46575427 1.2665989 6.2282062
-0.35614586 -0.49716705 1.2671229 2.4254427
-0.4470253 -0.68286037 1.2713146 160.6492
-0.44922066 -0.71443927 1.2713146 160.6492
0 0 0 1 0 0 0 1 0 0 0 1 0 0 0 0 0 159 1 0 0
