ply
format ascii 1.0
comment PCL generated
element vertex 850
property float x
property float y
property float z
property float intensity
element camera 1
property float view_px
property float view_py
property float view_pz
property float x_axisx
property float x_axisy
property float x_axisz
property float y_axisx
property float y_axisy
property float y_axisz
property float z_axisx
property float z_axisy
property float z_axisz
property float focal
property float scalex
property float scaley
property float centerx
property float centery
property int viewportx
property int viewporty
property float k1
property float k2
end_header
1.4534237 0.75340319 0.43126369 2.679795
1.4116328 0.75258124 0.44163287 159.23589
1.4237669 0.7306807 0.43644834 6.1842394
1.4178708 0.71585011 0.43644834 6.079422
1.4298441 0.69381726 0.43126369 4.545475
1.3969929 0.6898824 0.43904054 6.7638321
1.2658761 0.7264657 0.47533286 6.0285416
1.2064259 0.73429728 0.49088669 5.7178516
1.1827185 0.72759438 0.49607134 4.2664752
1.1501138 0.72477186 0.50384808 5.3130403
1.1264236 0.71835744 0.50903273 4.6418152
1.0938609 0.71587968 0.5168097 2.9572814
0.98154616 0.74809563 0.54791737 1.7009057
0.95832658 0.74312067 0.5531019 1.376298
0.92562461 0.74067938 0.56087887 1.4317857
0.89327931 0.73916602 0.56865573 1.8577654
0.83419585 0.74895167 0.58420956 131.69398
0.81107926 0.74463916 0.58939409 32.959652
0.8140204 0.72773278 0.58680189 15.603846
0.7730062 0.73092997 0.59717107 17.478891
0.74958348 0.72625494 0.60235572 29.748846
0.70866704 0.72987485 0.6127249 24.85091
0.68529248 0.72551203 0.61790955 27.144234
0.66225863 0.72196889 0.62309408 24.914343
0.63891029 0.71785855 0.62827873 27.215261
0.60687423 0.71806765 0.63605571 27.271019
0.58323693 0.71356273 0.64124024 27.309425
0.55126953 0.7141149 0.6490171 25.088192
0.52800465 0.71057463 0.65420175 27.409931
0.49610829 0.71146345 0.66197872 27.473465
0.46425581 0.71253395 0.66975558 25.244568
0.44139719 0.71008325 0.67494023 27.585035
0.41822743 0.70710206 0.68012488 27.631739
0.38648319 0.70865619 0.68790174 27.704124
0.35478497 0.71039152 0.69567871 27.779402
0.34026527 0.70338154 0.69827092 25.48806
0.308635 0.70542312 0.70604789 27.884468
0.27705407 0.7076447 0.71382475 27.966944
0.25404572 0.70550299 0.71900928 28.023752
0.23105931 0.70348644 0.72419393 30.890265
0.20809555 0.70159578 0.72937846 28.141911
0.17667508 0.7044543 0.73715544 31.058125
0.16223741 0.69819117 0.73974788 28.266399
0.13934445 0.69667661 0.74493241 31.164232
0.11647654 0.69528711 0.75011706 28.397562
0.093634367 0.6940223 0.75530171 28.465752
0.070817709 0.6928823 0.76048625 31.389322
0.056418896 0.68708408 0.76307845 28.571438
0.033640623 0.68616605 0.7682631 28.64423
0.010889769 0.68537259 0.77344775 31.590837
-0.011832714 0.68470287 0.7786324 31.6752
-0.026196003 0.67926979 0.78122461 28.83474
-0.048876286 0.67882121 0.78640926 31.805941
-0.071526766 0.67849612 0.79159391 31.895987
-0.094146967 0.67829418 0.79677844 31.988417
-0.10846829 0.67322397 0.79937077 29.123224
-0.13104177 0.67324257 0.80455536 32.131664
-0.16182065 0.6784265 0.81233227 29.346033
-0.17609358 0.67364693 0.8149246 29.392365
-0.19036579 0.66893721 0.81751686 29.439308
-0.20463634 0.66429853 0.82010919 29.486864
-0.22707844 0.66487694 0.82529378 32.542248
-0.24948573 0.66557717 0.83047837 32.651768
-0.25523877 0.65653443 0.83047837 32.651768
-0.27760887 0.65742278 0.83566302 21.842787
-0.30838943 0.6631577 0.84343994 32.938404
-0.3306706 0.66431749 0.84862459 23.613142
-0.33642697 0.65551591 0.84862459 33.058399
-0.35866714 0.65686226 0.85380918 30.165062
-0.36478615 0.64763165 0.85380918 30.165062
-0.38698387 0.64916849 0.85899377 30.279993
-0.40113473 0.6454258 0.86158609 30.338596
-0.41528034 0.64175296 0.86417836 30.397963
-0.43739438 0.64359927 0.86936295 27.9758
-0.45151162 0.64009023 0.87195528 33.638874
-0.46562219 0.6366508 0.8745476 30.643351
-0.48764825 0.63880491 0.87973219 33.848019
-0.5017283 0.63552892 0.88232446 37.688419
-0.50791359 0.62674737 0.88232446 30.835979
-0.52199626 0.62358451 0.88491678 37.768967
-0.52821898 0.61486697 0.88491678 37.768967
-0.55013776 0.6174655 0.89010137 42.674911
-0.56419635 0.61450887 0.8926937 42.76915
-0.57044721 0.60592389 0.8926937 38.017021
-0.57672524 0.59735918 0.8926937 48.879025
-0.59079313 0.59455967 0.89528596 42.864624
-0.5971067 0.58605838 0.89528596 48.98814
-0.58799434 0.56598687 0.89010137 42.674911
-0.60210586 0.56329608 0.8926937 42.76915
-0.60851765 0.55483055 0.8926937 42.76915
-0.61495566 0.54638505 0.8926937 42.76915
-0.61376762 0.53206849 0.89010137 42.674911
-0.62027764 0.52363968 0.89010137 42.674911
-0.62681365 0.51523137 0.89010137 37.933254
-0.6333766 0.50684333 0.89010137 37.933254
-0.62443995 0.48696876 0.88491678 42.490086
-0.62390208 0.47209668 0.88232446 37.688419
-0.63060021 0.46370029 0.88232446 42.399471
-0.6448462 0.4613831 0.88491678 37.768967
-0.63657308 0.44088817 0.87973219 42.310024
-0.6433692 0.4325316 0.87973219 42.310024
-0.63488126 0.41240311 0.8745476 42.134605
-0.63470531 0.39742517 0.87195528 42.048595
-0.62678695 0.37671089 0.86677068 37.226585
-0.63378453 0.3683238 0.86677068 37.226585
-0.63342214 0.3537364 0.86417836 41.797199
-0.6478591 0.35161567 0.86677068 37.226585
-0.64024091 0.33075762 0.86158609 37.080505
-0.64738321 0.32241297 0.86158609 33.372452
-0.65455151 0.31409073 0.86158609 33.372452
-0.63988185 0.28677821 0.85380918 33.181564
-0.65402627 0.28525496 0.85640144 36.938187
-0.64681292 0.26418996 0.85121685 36.799538
-0.65457344 0.25540447 0.85121685 41.399479
-0.66195226 0.24710512 0.85121685 36.799538
-0.65498209 0.2259264 0.84603226 41.247513
-0.65528607 0.21115494 0.84343994 32.938404
-0.66280413 0.20285821 0.84343994 41.173008
-0.66322136 0.18806624 0.84084767 46.970814
-0.65659976 0.16671181 0.83566302 40.955223
-0.64300132 0.13872957 0.8278861 108.6555
-0.62205195 0.10451937 0.81751686 143.92551
-0.59467983 0.063085794 0.80455536 45.902378
-0.65885758 0.10762835 0.82529378 144.63222
-0.65362191 0.071065187 0.81751686 143.92551
-0.62792134 0.014189243 0.80196309 142.59241
-0.64297724 0.012545347 0.80455536 142.8074
-0.70054817 0.036591053 0.82010919 144.158
-0.65519881 -0.041112185 0.79677844 106.62806
-0.66505432 -0.064544916 0.79418612 39.92738
-0.65989947 -0.086587429 0.78900158 26.542225
-0.66160488 -0.10177803 0.78640926 39.757427
-0.66385365 -0.11744452 0.78381693 35.290878
-0.65899777 -0.13961983 0.7786324 35.194668
-0.66045547 -0.1544168 0.77604008 35.147491
-0.65580058 -0.17668366 0.77085543 35.054974
-0.65789843 -0.19199228 0.7682631 35.009613
-0.66668296 -0.20027876 0.7682631 24.237425
-0.66181254 -0.22219086 0.76307845 19.642864
-0.65754485 -0.24461699 0.75789392 39.188221
-0.65339255 -0.26709843 0.75270927 19.546608
-0.65588403 -0.28251576 0.75011706 34.70813
-0.64543414 -0.312222 0.74234009 20.75227
-0.63514471 -0.3420217 0.73456311 16.328249
-0.64440012 -0.35037899 0.73456311 15.511836
-0.65368223 -0.35870743 0.73456311 25.853062
-0.65015793 -0.38144422 0.72937846 28.141911
-0.64675093 -0.4042325 0.72419393 30.890265
-0.64346075 -0.42707133 0.71900928 34.251251
-0.64663625 -0.44268107 0.71641707 34.216309
-0.6435585 -0.46560025 0.71123242 30.733002
-0.64690042 -0.48124909 0.7086401 27.911604
-0.64403605 -0.50424647 0.70345557 30.64345
-0.64754558 -0.51993299 0.70086324 30.61437
-0.64489484 -0.54300666 0.69567871 30.557341
-0.64857268 -0.55873013 0.69308627 27.753984
-0.65850902 -0.56704402 0.69308627 30.529381
-0.65614605 -0.59019971 0.68790174 30.474535
-0.66004181 -0.60594535 0.68530941 30.447649
-0.66401052 -0.62169814 0.68271708 33.801235
-0.66195965 -0.64495158 0.67753255 30.369055
-0.66609836 -0.66073632 0.67494023 30.343536
-0.66369152 -0.68359971 0.66975558 27.53953
-0.66799736 -0.69941568 0.66716325 25.224117
-0.66637778 -0.72280598 0.66197872 25.184008
-0.67085385 -0.73865151 0.65938628 21.569435
1.3267758 0.7344166 0.64806783 1.5050917
1.3028414 0.7272346 0.65256751 1.5382912
1.2608812 0.7275852 0.66156697 1.5083416
1.2189682 0.72818065 0.67056644 1.5145805
1.1771047 0.72902131 0.67956591 1.7381772
1.1442697 0.72632074 0.68631554 1.7382315
1.1024959 0.72762156 0.695315 1.752328
1.0607746 0.72916603 0.70431447 96.577446
0.94756866 0.76191187 0.73131287 96.594086
0.98674989 0.72983646 0.72006357 96.586655
0.96268916 0.72348261 0.72456336 43.46529
0.9211514 0.72591543 0.73356283 43.468048
0.88823676 0.72387767 0.74031234 54.337837
0.85601068 0.72348785 0.74706197 54.340786
0.82349181 0.72255325 0.75381148 54.343929
0.79100871 0.72180438 0.76056123 54.347267
0.7497189 0.72533405 0.76956069 54.352043
0.72615075 0.72086263 0.77406037 54.35458
0.69377828 0.72066939 0.78081 54.358589
0.67057681 0.71717715 0.78530979 54.361404
0.64706111 0.71311736 0.78980947 54.36433
0.62355852 0.70918703 0.79430926 54.367386
0.58221316 0.7132225 0.80330867 54.373871
0.5500164 0.71389532 0.81005824 54.379101
0.52659917 0.71043754 0.81455797 54.382767
0.49447513 0.7114501 0.8213076 54.38855
0.47110462 0.70827627 0.82580733 54.392616
0.43938613 0.7102797 0.83255696 54.399021
0.41606641 0.7073853 0.8370567 54.403519
0.39276528 0.70461869 0.84155643 54.408207
0.36948371 0.70198011 0.84605616 54.413086
0.34622192 0.69946861 0.8505559 54.418167
0.31435513 0.7016151 0.85730547 54.426193
0.29114985 0.69938529 0.8618052 54.43182
0.25936818 0.70186758 0.86855483 54.440704
0.23622155 0.69991863 0.87305456 54.446938
0.21309781 0.69809616 0.8775543 72.604576
0.19855142 0.69173479 0.87980419 54.456783
0.17546058 0.6901381 0.88430393 54.463684
0.14387035 0.69338703 0.8910535 54.474583
0.12935376 0.68732345 0.89330339 72.637817
0.097844601 0.69087756 0.90005296 72.653587
0.074870825 0.68981099 0.9045527 54.498486
0.051924229 0.68887067 0.90905243 72.676163
0.037454367 0.68320215 0.91130233 72.682106
0.014548302 0.68248487 0.91580206 54.520763
8.9406967e-05 0.67698717 0.9180519 54.525501
-0.014371634 0.67156148 0.9203018 54.530334
-0.045609236 0.6761241 0.92705137 54.545444
-0.060040951 0.6708945 0.92930126 54.550686
-0.082830191 0.67074704 0.933801 72.748672
-0.10558772 0.67072439 0.93830073 54.572769
-0.12831378 0.67082524 0.94280046 54.584507
-0.15100741 0.67104971 0.94730014 54.596729
-0.16537547 0.6662823 0.94955003 54.603035
-0.17974234 0.66158557 0.95179987 72.812622
-0.20236802 0.66212821 0.9562996 72.830299
-0.21671557 0.65759969 0.9585495 72.839424
-0.23928833 0.65836191 0.96304923 72.858223
-0.26148725 0.65977693 0.96754903 72.877808
-0.28398919 0.66077948 0.97204876 72.898216
-0.29861426 0.65608597 0.9742986 54.681545
-0.32105923 0.65731108 0.97879833 72.93042
-0.3349824 0.65382743 0.98104823 72.941605
-0.34923959 0.64989436 0.98329806 54.714764
-0.36349249 0.64603186 0.98554796 72.964668
-0.37774062 0.64223909 0.9877978 72.976547
-0.40006089 0.64396548 0.99229753 73.001068
-0.41428113 0.64033866 0.99454737 73.01371
-0.43653846 0.64228106 0.9990471 73.039772
-0.45072913 0.63881946 1.001297 73.053207
-0.47292209 0.64097691 1.0057967 73.080917
-0.47908998 0.63210511 1.0057967 73.080917
-0.49326015 0.62885261 1.0080466 73.0952
-0.50742269 0.62566948 1.0102965 54.83234
-0.54033732 0.5964582 1.0125463 1.1794301
-0.5466454 0.58779836 1.0125463 1.3797108
-0.53728318 0.56761074 1.0080466 0.961779
-0.58264208 0.50735188 1.0080466 1.405677
-0.61233282 0.51673293 1.0147963 97.519806
-0.63425541 0.52028656 1.0192959 8.1301298
-0.63313866 0.50590444 1.017046 6.6504869
-0.62407279 0.48592043 1.0125463 5.9290271
-0.63872361 0.48312402 1.0147963 6.453517
-0.64538693 0.47477388 1.0147963 6.453517
-0.65207672 0.46644473 1.0147963 7.5661917
-0.65122461 0.45199919 1.0125463 13.710876
-0.65043712 0.43752813 1.0102965 4.3865871
-0.66439533 0.43585896 1.0125463 4.4770203
-0.66407657 0.42092299 1.0102965 6.8540425
-0.65595508 0.40018892 1.0057967 5.9254804
-0.67034936 0.39814901 1.0080466 8.1216898
-0.66982889 0.38361979 1.0057967 6.6437201
-0.67680478 0.37536764 1.0057967 6.0900769
-0.68380642 0.36713767 1.0057967 5.4810691
-0.68344283 0.35258126 1.0035468 4.2153993
-0.66840196 0.32525659 0.99679726 1.9916347
-0.65350723 0.29781556 0.99004763 1.7106724
-0.64568496 0.27713966 0.98554796 1.5307273
-0.63105917 0.24949312 0.97879833 1.3589519
-0.64615893 0.24711967 0.98104823 2.4866457
-0.6462934 0.2323072 0.97879833 2.7011268
-0.58849478 0.16539502 0.9585495 3.2614667
-0.58892703 0.15035629 0.9562996 4.8553534
-0.61826301 0.16151667 0.96304923 6.4286671
-0.61874843 0.1465261 0.96079934 10.406961
-0.64080524 0.15131521 0.96529913 97.157227
-0.63421702 0.12972784 0.96079934 97.131638
-0.6273036 0.10854173 0.9562996 54.622726
-0.62803793 0.093491077 0.95404977 54.616028
-0.62175488 0.071732044 0.94955003 72.804039
-0.62264681 0.056619406 0.94730014 72.795639
-0.63065004 0.04822135 0.94730014 72.795639
-0.62463593 0.026337624 0.94280046 72.779343
-0.63273454 0.017945528 0.94280046 72.779343
-0.61992145 -0.010818243 0.93605083 97.008141
-0.6142211 -0.032866716 0.9315511 96.988518
-0.63226056 -0.064948559 0.92930126 96.978996
-0.59941554 -0.11476302 0.91580206 96.925804
-0.59425759 -0.13709235 0.91130233 96.909477
-0.60286975 -0.14557934 0.91130233 96.909477
-0.60470247 -0.16101146 0.90905243 96.901558
-0.59352326 -0.19091845 0.9023028 96.878754
-0.6023047 -0.19940734 0.9023028 96.878754
-0.59040165 -0.22850728 0.89555323 96.857292
-0.5881393 -0.26671076 0.88880366 16.760269
-0.66389561 -0.20422339 0.91130233 96.909477
-0.63708615 -0.28577375 0.89330339 96.850426
-0.63299441 -0.30848789 0.88880366 96.837112
-0.60276914 -0.36006522 0.87530434 96.800278
-0.61779761 -0.39988136 0.87080461 11.46185
-0.6401782 -0.39372492 0.87530434 96.800278
-0.61735344 -0.43858743 0.8640551 72.579628
-0.61406112 -0.46164918 0.85955536 43.543179
-0.61088777 -0.48476171 0.85505563 54.423462
-0.60783315 -0.50792432 0.8505559 43.534531
-0.6112535 -0.52375126 0.848306 54.4156
-0.60208106 -0.55439687 0.84155643 54.408207
-0.58676457 -0.59255505 0.83255696 54.399021
-0.59052134 -0.60850763 0.83030707 54.396847
-0.58182549 -0.63939571 0.8235575 54.390564
-0.57953644 -0.6628871 0.8190577 43.509266
-0.57115221 -0.69392729 0.81230813 31.074806
-0.55674386 -0.73257446 0.80330867 24.166164
1.3066442 0.63984811 0.82704878 6.9372706
1.2102587 0.66410351 0.84612626 124.94221
1.2041543 0.64994359 0.84612626 25.55636
1.1533654 0.65622246 0.85566503 46.860619
1.1019771 0.66124821 0.86520374 40.17305
1.0510085 0.66735291 0.87474251 46.877186
0.98187041 0.68103719 0.88809675 46.890556
0.94932008 0.68046427 0.89381993 46.896786
0.90753627 0.68340087 0.90145093 46.905594
0.87473273 0.68248415 0.90717423 46.912605
0.84196591 0.68175387 0.91289741 70.379967
0.8270247 0.67290425 0.91480517 25.594101
0.77654338 0.68085432 0.92434394 31.290588
0.73535562 0.68559718 0.93197495 40.240643
0.69389844 0.68987036 0.93960595 40.251213
0.65250874 0.69438505 0.9472369 46.972939
0.62851167 0.68987346 0.95105243 46.979877
0.59604812 0.69050133 0.95677561 46.99073
0.58122849 0.68261886 0.95868337 56.39336
0.54882431 0.68356156 0.96440655 56.407295
0.51646423 0.68468869 0.97012985 56.42194
0.48448324 0.68666053 0.97585315 56.437347
0.46096063 0.68369389 0.97966862 56.448063
0.42872477 0.68533921 0.9853918 56.464821
0.39653659 0.68716931 0.99111509 56.482452
0.37310123 0.68464327 0.99493062 70.618393
0.35837603 0.6776793 0.99683827 40.357853
0.32629275 0.67997575 1.0025616 47.10041
0.2942605 0.68245459 1.0082848 56.541
0.27957201 0.67582047 1.0101926 56.548069
0.25624609 0.67393398 1.014008 56.562576
0.22432685 0.6768775 1.0197313 56.585258
0.20106339 0.67527306 1.0235468 56.601032
0.16923809 0.67855155 1.0292699 56.625706
0.14603996 0.67722821 1.0330856 56.642864
0.12286806 0.67603159 1.036901 56.66061
0.10826492 0.67012453 1.0388088 56.669708
0.085131645 0.66915393 1.0426242 56.68837
0.062026024 0.66830957 1.0464398 70.884598
0.047445059 0.66267419 1.0483475 56.717564
0.024380922 0.6620549 1.052163 56.737865
-0.0071187019 0.6665318 1.0578862 56.76963
-0.030107737 0.66618991 1.0617018 56.79171
-0.053066015 0.66597414 1.0655172 71.018188
-0.075994015 0.66588283 1.0693327 71.047707
-0.090487957 0.66084015 1.0712404 71.062843
-0.10498142 0.65586925 1.0731483 71.078239
-0.11947465 0.6509707 1.075056 71.093895
-0.14232087 0.65129876 1.0788715 56.900803
-0.16513324 0.65175128 1.0826869 71.159218
-0.18791103 0.65232801 1.0865024 71.193558
-0.21065497 0.65302825 1.090318 71.229088
-0.22507501 0.64859247 1.0922258 71.247299
-0.24742365 0.65004599 1.0960412 71.284653
-0.27007675 0.65108657 1.0998566 71.323296
-0.27655602 0.64104962 1.0998566 71.323296
-0.29094672 0.63692474 1.1017644 71.343109
-0.32140088 0.64416909 1.1074877 71.404587
-0.33574867 0.64023495 1.1093955 71.425781
-0.35826278 0.64181113 1.1132109 71.469246
-0.38073802 0.64350891 1.1170263 71.514198
-0.39503574 0.63983834 1.1189342 71.537254
-0.40932822 0.63623786 1.120842 57.24855
-0.5296855 0.60125041 1.1361039 127.57888
-0.55980659 0.60986245 1.1418271 31.931702
-0.53437424 0.57808995 1.134196 40.992172
-0.5881772 0.60432124 1.1456426 127.82967
-0.46825409 0.50232196 1.1151187 127.09607
-0.55214906 0.53760409 1.1322885 47.806618
-0.58078909 0.53226328 1.1361039 13.669167
-0.58729863 0.52373052 1.1361039 31.89472
-0.57828212 0.50323725 1.1322885 11.951654
-0.60039783 0.50672722 1.1361039 35.881561
-0.61360335 0.48980665 1.1361039 4.4161921
-0.62757754 0.48793221 1.1380117 5.5223379
-0.62691498 0.47296906 1.1361039 6.2402711
-0.63361049 0.46458197 1.1361039 5.4160848
-0.63268948 0.4500556 1.134196 5.978025
-0.63945675 0.44168663 1.134196 6.105217
-0.63104296 0.42092252 1.1303806 6.9935608
-0.63751984 0.41301346 1.1303806 8.6889696
-0.63722229 0.39794016 1.1284728 8.4304123
-0.64415336 0.38958549 1.1284728 9.5544672
-0.64358544 0.37495017 1.1265652 15.080721
-0.64308333 0.36028886 1.1246574 11.934795
-0.62767625 0.33290148 1.1189342 5.3990378
-0.63481164 0.32451725 1.1189342 7.5302367
-0.65686417 0.32895041 1.1227496 127.26138
-0.63431048 0.29497528 1.1151187 20.426153
-0.64156532 0.28661203 1.1151187 5.1065383
-0.63365006 0.25094843 1.1093955 1.9304265
-0.64145422 0.24211955 1.1093955 1.4958279
-0.6561985 0.24031568 1.1113031 1.5789466
-0.65632153 0.2254622 1.1093955 1.5196974
-0.64923 0.20400357 1.1055799 1.5351346
-0.65676999 0.19568801 1.1055799 1.5188032
-0.6498549 0.17413974 1.1017644 1.4940966
-0.65026903 0.1591754 1.0998566 1.5762055
-0.65795016 0.15086317 1.0998566 1.7290496
-0.65804935 0.13633966 1.097949 1.4701818
-0.64432764 0.10790062 1.0922258 1.2610142
-0.65216994 0.099569798 1.0922258 1.2499526
-0.6395545 0.055844545 1.0845947 1.254207
-0.6485405 0.032350063 1.0826869 1.7570177
-0.65662026 0.02403307 1.0826869 3.0280519
-0.67173481 0.022614241 1.0845947 4.9948239
-0.67984462 0.014369965 1.0845947 2.6361573
-0.67404985 -0.0076825619 1.0807792 4.5169821
-0.67531133 -0.022858143 1.0788715 3.9514449
-0.69048619 -0.024130344 1.0807792 6.9407291
-0.67804313 -0.053261995 1.075056 2.2750046
-0.67951369 -0.068490028 1.0731483 7.1078234
-0.68105435 -0.083734989 1.0712404 4.8178201
-0.68313575 -0.099453211 1.0693327 7.4787059
-0.69162893 -0.10766077 1.0693327 9.1674461
-0.68609548 -0.12956762 1.0655172 5.4629374
-0.69468355 -0.13776588 1.0655172 3.8388209
-0.67631841 -0.17446613 1.0578862 2.7558074
-0.65815902 -0.21130896 1.0502553 6.918005
-0.66651201 -0.21913528 1.0502553 11.345528
-0.68205976 -0.22020006 1.052163 20.263525
-0.67762113 -0.24284148 1.0483475 18.905857
-0.66666555 -0.27277446 1.0426242 4.8040996
-0.67570376 -0.28103328 1.0426242 3.2579522
-0.65841794 -0.31837463 1.0349933 2.7770426
-0.64134097 -0.35585213 1.0273623 4.0440965
-0.65064025 -0.36418986 1.0273623 7.6509929
-0.66648388 -0.36515927 1.0292699 9.7630529
-0.66282129 -0.38813806 1.0254545 4.9657125
-0.65280461 -0.41854858 1.0197313 2.2277663
-0.62360573 -0.47125435 1.0082848 2.5468922
-0.62684202 -0.48706794 1.006377 3.1760705
-0.61734605 -0.51777411 1.0006537 3.6697328
-0.62077475 -0.5336473 0.9987461 3.6693108
-0.5988543 -0.57945395 0.98920733 4.7861423
-0.57719588 -0.62542915 0.97966862 7.6281171
-0.56210804 -0.66405034 0.97203767 125.39332
-0.53466702 -0.71788025 0.96059108 23.499136
1.1623728 0.65136337 1.028676 10.66046
1.128772 0.64852405 1.0333698 33.759937
1.0774901 0.65467501 1.0411925 40.51585
1.0349658 0.65633297 1.0474508 40.519264
0.99317861 0.65974998 1.0537089 28.944965
0.62191701 0.79777694 1.116291 6.9965696
0.50869656 0.83529186 1.1350656 90.238945
0.59261894 0.7815311 1.1194201 90.187233
0.59582257 0.76510251 1.1178555 90.182571
0.58143806 0.75778675 1.1194201 90.187233
0.72101998 0.6604892 1.0928227 3.8258028
0.67903876 0.66444755 1.0990808 3.621418
0.69067454 0.64325953 1.0959518 6.7594395
0.91017461 0.42044735 1.0490153 1.0180945
0.91206384 0.40266299 1.0474508 1.4471167
0.90513968 0.38944149 1.0474508 1.6079074
0.91563058 0.36699533 1.0443215 1.1317744
0.91730762 0.34911203 1.042757 1.1445391
0.93631196 0.32184029 1.0380634 1.1846268
0.93781877 0.30383706 1.0364988 1.1444478
0.94792199 0.28106999 1.0333698 1.1915272
0.93196177 0.27249599 1.0349343 1.1845814
0.93326831 0.25442553 1.0333698 1.2202388
0.94312739 0.23150992 1.0302405 1.1708226
0.94427419 0.21335077 1.028676 1.1914631
0.96253705 0.18542433 1.0239824 1.2502372
0.95493054 0.17204499 1.0239824 1.205586
0.96440768 0.14884567 1.0208533 1.1707045
0.95668626 0.13546085 1.0208533 1.1707045
0.48975301 0.37389565 1.1037745 0.98458707
0.54224491 0.32679605 1.0928227 0.88933134
0.96780372 0.056886196 1.0130305 1.1488029
0.95979381 0.043491364 1.0130305 1.2215118
0.96019387 0.025012016 1.011466 1.2222736
0.96895671 0.0013697147 1.0083369 1.1374158
0.96919227 -0.017190456 1.0067724 0.85991919
-0.070659637 0.59225702 1.1976476 1.6843038
-0.09372592 0.59260392 1.2007768 1.4156679
-0.12511301 0.59834337 1.2054703 1.4886373
-0.14809394 0.59896708 1.2085996 1.5814281
-0.16236758 0.59494209 1.2101641 1.5113744
-0.17698789 0.59043932 1.2117286 1.3695804
-0.20024514 0.59083819 1.2148577 1.3886607
-0.20657253 0.58111048 1.2148577 2.5839639
-0.25385213 0.59905386 1.2226806 2.0430863
-0.32605791 0.63308215 1.2351968 90.945
-0.36513519 0.64564657 1.2414551 91.023994
-0.32206774 0.6034348 1.2320678 90.907684
-0.33654118 0.59961557 1.2336323 51.145966
-0.35100913 0.59586668 1.2351968 51.156563
-0.37362266 0.59776664 1.2383261 68.237808
-0.38806129 0.59418583 1.2398906 68.252762
-0.39437699 0.58504772 1.2398906 68.252762
-0.41691852 0.58723688 1.2430196 68.283516
-0.43133664 0.58386874 1.2445842 68.299339
-0.45381069 0.58627582 1.2477133 68.331894
-0.46819568 0.58307362 1.2492778 68.348633
-0.47454596 0.57418776 1.2492778 91.131516
-0.48893332 0.57110143 1.2508423 91.154266
-0.4953208 0.56228018 1.2508423 91.154266
-0.50173616 0.55347919 1.2508423 91.154266
-0.50817943 0.54469824 1.2508423 91.154266
-0.50671458 0.53005743 1.2492778 91.131516
-0.5211482 0.52719736 1.2508423 91.154266
-0.49608064 0.4947567 1.2445842 51.224506
-0.52275681 0.45968866 1.2445842 1.1843817
-0.52168989 0.44492102 1.2430196 1.3047806
-0.52068901 0.430125 1.2414551 1.2564663
-0.52751923 0.42140436 1.2414551 1.2962278
-0.53399539 0.41318798 1.2414551 1.2190714
-0.54899001 0.41017866 1.2430196 1.2645097
-0.5481751 0.39537144 1.2414551 1.1703085
-0.53973746 0.37433791 1.2383261 1.2636632
-0.54674292 0.36567736 1.2383261 1.1186526
-0.55377603 0.3570385 1.2383261 1.1186526
-0.56044269 0.34890032 1.2383261 1.1310135
-0.55270243 0.32723665 1.2351968 1.1431633
-0.55985618 0.31861687 1.2351968 1.0713416
-0.56703663 0.31002021 1.2351968 1.0080111
-0.5591433 0.28871107 1.2320678 1.0996897
-0.58147883 0.29289341 1.2351968 1.1828108
-0.57371974 0.2715354 1.2320678 1.1556062
-0.56606746 0.25010586 1.2289387 1.1172756
-0.56599355 0.23506689 1.2273741 1.1420231
-0.58088613 0.23297453 1.2289387 1.1551493
-0.5879209 0.22491741 1.2289387 1.1296213
-0.58057666 0.20334792 1.2258096 1.0988365
-0.58853889 0.19434333 1.2258096 1.1547096
-0.57400727 0.16610241 1.2211159 1.2305554
-0.58901381 0.16415167 1.2226806 1.1947873
-0.58202767 0.14239836 1.2195513 1.1160461
-0.45826769 0.01422143 1.1913894 1.4446527
-0.3134346 -0.13476706 1.1585338 90.337364
-0.31477761 -0.15082908 1.1569693 10.162113
-0.32343411 -0.16019368 1.1569693 8.4684277
-0.35330415 -0.14880133 1.1616629 3.0342331
-0.62839437 0.09207201 1.2195513 1.4588318
-0.57884812 0.029431105 1.2070349 1.2748342
-0.59409571 0.027699947 1.2085996 1.2592853
-0.5879159 0.0055568218 1.2054703 1.2667286
-0.59608006 -0.0029506683 1.2054703 1.1926509
-0.59717655 -0.018304348 1.2039058 1.0963104
-0.59127092 -0.04057169 1.2007768 1.1991539
-0.58547854 -0.062901497 1.1976476 1.0840466
-0.593858 -0.071416616 1.1976476 1.198828
-0.59525657 -0.086865425 1.1960831 1.2349929
-0.58974028 -0.10931492 1.1929541 1.1775808
-0.59826517 -0.11781621 1.1929541 1.1913537
-0.59987545 -0.13331699 1.1913894 1.1982119
-0.61539483 -0.13473797 1.1929541 1.2812672
-0.60330892 -0.16436839 1.1882603 1.4974012
-0.59187055 -0.19457436 1.1835667 1.6286061
-0.60066342 -0.20306826 1.1835667 3.2834802
-0.63631177 -0.18252611 1.1898248 9.2577753
-0.63825893 -0.19803667 1.1882603 16.970547
-0.62670732 -0.22791719 1.1835667 20.357576
-0.62884212 -0.24350047 1.1820021 18.504822
-0.61706781 -0.2730701 1.1773084 9.2494268
-0.60839033 -0.31891441 1.1710503 1.2955763
-0.59088278 -0.35648346 1.1647921 1.08154
-0.57358527 -0.3941915 1.1585338 1.0927907
-0.58300519 -0.40274262 1.1585338 1.1886495
-0.58584833 -0.41860819 1.1569693 1.1955428
-0.58218336 -0.44185019 1.1538402 1.2943288
-0.58519554 -0.4577589 1.1522757 1.3368009
-0.58174682 -0.48108578 1.1491466 1.4011235
-0.58492827 -0.49703717 1.1475821 1.430619
-0.58169627 -0.5204463 1.1444528 1.2616072
-0.58504891 -0.53643847 1.1428883 1.0005152
-0.58847523 -0.5524404 1.1413238 1.3361229
-0.59197497 -0.56845117 1.1397593 2.0307705
-0.58276176 -0.59952784 1.1350656 2.3886778
-0.56734729 -0.63824201 1.1288073 2.2554269
-0.53311133 -0.69978905 1.1178555 4.2273078
-0.56245899 -0.68570089 1.1225492 8.4559507
-0.53500414 -0.73993278 1.1131618 1.7489702
-0.53923607 -0.75623107 1.1115973 1.4916974
0.90506482 0.6032877 1.2284489 1.9305459
0.88086629 0.59865761 1.2308862 2.2436624
0.82986236 0.60710096 1.2369796 2.6780956
0.80538154 0.60210359 1.2394168 2.8303394
0.7723515 0.60232985 1.243073 2.9652498
0.74826074 0.59834456 1.2455102 4.6997876
0.70641875 0.60334539 1.2503848 7.5486441
0.7444737 0.56849337 1.2442915 1.7791774
-0.036237717 0.55581832 1.3271604 1.4685435
-0.059465885 0.55616498 1.3295977 2.4721165
-0.091038227 0.56195831 1.3332536 2.4012814
-0.097099543 0.55244613 1.3332536 2.601388
-0.1202395 0.55313897 1.335691 2.6017489
-0.1353724 0.54800558 1.3369095 5.2038708
-0.18338943 0.56520438 1.3430029 11.358219
-0.23726606 0.57358789 1.3490962 1.8517476
-0.23538637 0.55847359 1.3478775 1.7120826
-0.25005865 0.55438471 1.3490962 1.6128125
-0.26472569 0.55036759 1.3503149 1.5528463
-0.27117991 0.54084206 1.3503149 2.8410029
-0.40052295 0.61542892 1.3685948 111.29044
-0.34956145 0.56690693 1.3600641 111.20183
-0.36239362 0.54840875 1.3600641 83.401367
-0.36885357 0.53919029 1.3600641 35.743443
-0.38344359 0.53572607 1.3612828 50.046177
-0.3980267 0.53233314 1.3625014 62.56456
-0.41260219 0.52901173 1.3637201 83.428711
-0.4271698 0.52576065 1.3649387 83.438194
-0.44172907 0.52258134 1.3661574 83.447868
-0.45627999 0.5194726 1.3673761 83.457756
-0.45483804 0.50466347 1.3661574 83.447868
-0.46143508 0.49573541 1.3661574 83.447868
-0.46805954 0.48682833 1.3661574 83.447868
-0.43967986 0.40916133 1.3576268 1.4714831
-0.47015882 0.41836643 1.3612828 1.3101094
-0.46134305 0.39731741 1.3588455 1.3976415
-0.46827698 0.38841033 1.3588455 1.4134343
-0.4674356 0.37339115 1.3576268 1.3669515
-0.46626997 0.35883951 1.3564081 1.3095652
-0.39607191 0.28762674 1.3442216 1.7234551
-0.33364558 0.22265053 1.3332536 4.2327671
-0.34112859 0.21334338 1.3332536 9.6051254
-0.3332293 0.19154811 1.3308163 8.610342
-0.34081054 0.18223953 1.3308163 9.2481451
-0.34799719 0.1734705 1.3308163 8.9178543
-0.34076691 0.15103841 1.328379 8.6092396
-0.34847522 0.14175367 1.328379 8.3222647
-0.34860587 0.12611723 1.3271604 8.6087036
-0.33363247 0.097658157 1.3235043 7.8002405
-0.33394194 0.081927776 1.3222857 3.5656199
-0.50779653 0.15388727 1.3442216 1.0960569
-0.51549506 0.14512753 1.3442216 1.2131115
-0.50880408 0.12273026 1.3417842 1.4277774
-0.51660037 0.11397362 1.3417842 1.8928866
-0.5022788 0.085336685 1.3381283 1.6543314
-0.51755357 0.083217621 1.3393469 1.4440618
-0.52547383 0.074489117 1.3393469 1.4275581
-0.52610278 0.059080839 1.3381283 1.4439541
-0.54869485 0.063833475 1.3405656 1.2307471
-0.52029252 0.021451712 1.3344723 1.1100018
-0.39733529 -0.10867453 1.3125365 1.4589986
-0.27562284 -0.24008012 1.2906005 3.1163363
-0.2989881 -0.2359333 1.2930379 7.1235437
-0.30071974 -0.25218725 1.2918192 8.0424318
-0.32403708 -0.24787116 1.2942564 8.0429945
-0.32584929 -0.26409101 1.2930379 6.5611582
-0.34198904 -0.26651311 1.2942564 8.0429945
-0.35100913 -0.27579188 1.2942564 7.3333187
-0.35297418 -0.29199362 1.2930379 6.7384868
-0.35501218 -0.30821276 1.2918192 5.7980318
-0.35008216 -0.33144236 1.289382 6.0804548
-0.35228801 -0.34771371 1.2881632 5.9354882
-0.36156249 -0.35695958 1.2881632 5.4193587
-0.35691833 -0.38030076 1.285726 4.8877401
-0.36629605 -0.38953209 1.285726 5.3037176
-0.34798408 -0.42715812 1.2808514 4.9849014
-0.3580389 -0.43693066 1.2808514 4.3727202
-0.32629228 -0.48906136 1.2735393 4.6149035
-0.23253608 -0.60543633 1.2552595 8.5904531
-0.23578119 -0.6222496 1.2540407 4.8846779
-0.22546792 -0.65350151 1.2503848 5.6614833
-0.25608754 -0.64143896 1.2540407 5.0840521
-0.36053991 -0.54887938 1.2711021 1.9317243
-0.48129106 -0.45781779 1.289382 1.107994
-0.49091125 -0.46665788 1.289382 1.2101876
-0.47383428 -0.50482798 1.2845073 1.2653151
-0.47694468 -0.52105212 1.2832887 1.3401054
-0.50003362 -0.51514196 1.285726 1.3772085
-0.48999834 -0.54613113 1.2820699 1.2525239
-0.48671937 -0.56979036 1.2796326 1.304911
-0.49669099 -0.57861257 1.2796326 1.2524523
-0.48052382 -0.61726236 1.274758 1.2650313
-0.47760868 -0.64107418 1.2723207 1.3767877
-0.47481561 -0.6649363 1.2698834 1.339712
-0.43331838 -0.73400354 1.2601341 1.977322
-0.52117491 -0.65243769 1.274758 110.76052
-0.51213574 -0.68385124 1.2711021 110.75219
0.74645495 0.53555727 1.402657 1.3799962
0.71337056 0.5365212 1.4052711 1.7065836
0.68033266 0.5376718 1.4078852 3.0170352
0.64734149 0.53900957 1.4104993 2.0354221
0.63203144 0.53125739 1.4113706 2.2370059
0.59910774 0.53291273 1.4139848 3.9421017
0.54866052 0.54414225 1.4183415 5.3407145
0.53341055 0.53678274 1.4192129 5.1896076
0.53566718 0.52000093 1.4183415 1.2878318
0.54659867 0.49840856 1.4165988 0.80302137
0.0682652 0.48954678 1.4523249 0.81588471
0.011067629 0.51087093 1.457553 2.3417954
-0.020736933 0.51650596 1.4601672 3.2514181
-0.035325766 0.51215243 1.4610385 2.2076683
-0.058651924 0.51269388 1.4627812 2.6525183
-0.073949337 0.50737786 1.4636526 3.3780949
-0.12224221 0.52449083 1.4680095 1.8457398
-0.11176538 0.50412703 1.4662666 2.2702906
-0.14328694 0.5106163 1.4688808 2.1947155
-0.15815663 0.50623393 1.4697522 2.1214099
-0.18129444 0.5074749 1.4714949 1.9474701
-0.17962861 0.49211121 1.4706235 4.1515441
-0.28511524 0.54954624 1.4810799 83.834763
-0.26691222 0.52320075 1.4784658 83.618881
-0.27845407 0.48900151 1.4775945 23.498222
-0.31769395 0.50244379 1.4810799 62.876072
-0.29990792 0.4758153 1.4784658 62.714161
-0.31470799 0.47218275 1.4793372 83.689674
-0.32950115 0.46862245 1.4802086 83.761635
-0.33621192 0.45930076 1.4802086 83.761635
-0.35100913 0.45585871 1.4810799 83.834763
-0.35775971 0.44660425 1.4810799 83.834763
-0.37255979 0.4432807 1.4819512 83.909088
-0.37934971 0.43409419 1.4819512 62.931816
-0.3830173 0.37946248 1.4793372 1.10118
-0.38210034 0.36425042 1.4784658 0.96980661
-0.37336135 0.34292722 1.4767231 0.96820396
-0.3804667 0.33374381 1.4767231 0.95345974
-0.39545083 0.33071637 1.4775945 0.94465214
-0.37910151 0.3031292 1.4749804 1.0082289
-0.37852049 0.28778172 1.4741089 2.3719456
-0.48709464 0.3593049 1.4854368 84.21875
-0.46305823 0.32555389 1.4819512 83.909088
-0.40044188 0.2603507 1.4741089 83.281647
-0.39234042 0.23869276 1.4723663 62.365677
-0.4074862 0.23587394 1.4732376 83.217422
-0.40723419 0.22047019 1.4723663 83.154236
-0.41472387 0.21139407 1.4723663 83.154236
-0.41458869 0.19596481 1.4714949 83.092056
-0.41452169 0.180511 1.4706235 83.030884
-0.42213702 0.17145801 1.4706235 83.030884
-0.42218757 0.15598035 1.4697522 62.22802
-0.42230701 0.14047885 1.4688808 62.183605
-0.40108609 0.043363094 1.4619099 0.82470787
-0.41702962 0.040377855 1.4627812 0.81795716
-0.41022778 0.018058777 1.4610385 0.82419616
-0.41094542 0.0023326874 1.4601672 0.86603194
-0.41173363 -0.01341486 1.4592957 0.86551118
-0.41995788 -0.022475719 1.4592957 0.81594449
-0.42821121 -0.031511068 1.4592957 0.82319731
-0.42184567 -0.054026127 1.457553 0.8644945
-0.43749976 -0.056279182 1.4584244 0.89859086
-0.43082929 -0.078356266 1.4566817 0.88045549
-0.42473578 -0.10099792 1.4549389 0.98238534
-0.34636378 -0.19213915 1.4444826 1.2488226
-0.25410199 -0.2975316 1.4322834 2.6075177
-0.28480816 -0.28642011 1.4348975 4.2495751
-0.3082397 -0.28205538 1.4366403 4.4603515
-0.31015611 -0.2983737 1.4357688 5.2229285
-0.31927633 -0.30775213 1.4357688 6.303534
-0.31420779 -0.33105922 1.4340261 7.6109209
-0.32343125 -0.34042525 1.4340261 7.3064847
-0.32561803 -0.35678506 1.4331548 6.5212002
-0.32083607 -0.38020587 1.431412 6.7577748
-0.32319236 -0.39661741 1.4305407 6.7553582
-0.3256228 -0.41304445 1.4296694 5.5251665
-0.32812691 -0.42948484 1.428798 4.9261441
-0.35156703 -0.42453957 1.4305407 3.0914352
-0.35468268 -0.44145727 1.4296694 2.0036318
-0.39879036 -0.41480422 1.4340261 1.0261916
-0.38020301 -0.45219326 1.4305407 0.94017875
-0.38980603 -0.46135116 1.4305407 1.0856826
-0.39943814 -0.47047877 1.4305407 1.0729098
-0.38182545 -0.50862813 1.4270552 1.0175647
-0.39106202 -0.51727319 1.4270552 1.1243461
-0.38054872 -0.54831076 1.4244411 1.2814542
-0.37695217 -0.57211852 1.4226984 1.3673143
-0.36002159 -0.61067438 1.4192129 2.6711216
-0.39023638 -0.59778976 1.4218271 6.0599122
-0.40697789 -0.59952641 1.4226984 5.1957946
-0.37405992 -0.67708874 1.4157275 1.1410902
-0.34470153 -0.73097587 1.4104993 1.293947
-0.42105985 -0.66551757 1.4192129 80.727226
-0.45759106 -0.64457321 1.4226984 80.823471
0.4699173 0.46186757 1.5725971 5.6065516
0.41982698 0.47480369 1.575217 19.471743
0.39582157 0.47309017 1.576265 29.23008
0.37184262 0.4715066 1.5773128 36.56646
0.35651326 0.46501684 1.5778369 36.581192
0.32396436 0.46872735 1.5794088 41.859005
0.30006671 0.46753144 1.5804567 41.894825
0.27619743 0.46646476 1.5815046 41.931644
0.25235772 0.4655273 1.5825526 41.96949
0.22854686 0.4647181 1.5836005 49.009785
0.19623899 0.46923447 1.5851724 49.080235
0.17250562 0.46870852 1.5862204 49.128838
0.15729809 0.46306086 1.5867443 42.131699
0.14208984 0.45748663 1.5872684 42.153259
0.11841917 0.45729113 1.5883162 42.197269
0.077891827 0.46788359 1.5904121 49.337177
0.054321289 0.46799564 1.59146 42.336807
0.031156301 0.46881628 1.592508 49.450253
0.0076544285 0.46917796 1.5935559 42.436417
-0.016183853 0.46909332 1.5946039 42.488316
-0.031254292 0.46424937 1.5951278 42.514809
-0.054293394 0.46553445 1.5961758 42.568886
-0.05268836 0.44983506 1.5956519 42.54166
-0.076077461 0.45072246 1.5966997 37.271923
-0.099428654 0.45173597 1.5977477 37.321239
-0.11446786 0.44728303 1.5982716 33.196804
-0.14601588 0.45413852 1.5998435 33.265789
-0.1610117 0.44988394 1.6003675 33.289421
-0.18422389 0.45137167 1.6014155 27.276281
-0.19098926 0.44159365 1.6014155 27.276281
-0.2223413 0.44899893 1.6029874 20.047552
-0.22911382 0.43934131 1.6029874 20.047552
-0.23591709 0.42970419 1.6029874 20.047552
-0.25088143 0.42588663 1.6035113 21.496016
-0.26583958 0.42214131 1.6040354 23.16757
-0.27269626 0.41262007 1.6040354 27.379856
-0.26343107 0.39137268 1.6029874 30.071325
-0.2864995 0.39364219 1.6040354 50.1964
-0.29344583 0.38418579 1.6040354 50.1964
-0.29240203 0.36880159 1.6035113 75.236053
-0.29942608 0.35936403 1.6035113 50.157372
-0.30647993 0.34994841 1.6035113 50.157372
-0.29763579 0.32850504 1.6024634 60.097088
-0.29684186 0.31303382 1.6019394 60.052147
-0.30404162 0.30361032 1.6019394 60.052147
-0.30336404 0.28810978 1.6014155 75.009773
-0.30275416 0.27258205 1.6008915 59.964088
-0.30221248 0.2570281 1.6003675 59.920956
-0.30958819 0.24762154 1.6003675 59.920956
-0.316993 0.23823857 1.6003675 74.901199
-0.32442713 0.22887897 1.6003675 59.920956
-0.33968139 0.2257905 1.6008915 42.831493
-0.33938408 0.21022964 1.6003675 59.920956
-0.34690642 0.20094037 1.6003675 59.920956
-0.34672713 0.18535399 1.5998435 74.848022
-0.34661603 0.16974235 1.5993196 59.836456
-0.34657431 0.15410662 1.5987957 74.743835
-0.34660172 0.13844681 1.5982716 74.69281
-0.34669852 0.12276268 1.5977477 49.76165
-0.35449529 0.11349726 1.5977477 42.652843
-0.35471106 0.097790003 1.5972238 33.152367
-0.3549962 0.08205986 1.5966997 33.1306
-0.34778142 0.059793472 1.5956519 22.907049
-0.34822702 0.043994427 1.5951278 21.257404
-0.34121394 0.021612644 1.5940799 16.513075
-0.33385897 -0.00032138824 1.593032 9.8959007
-0.34204268 -0.009626627 1.593032 5.2083688
-0.32831287 -0.039315939 1.59146 2.2796741
-0.30683661 -0.075258255 1.5893642 1.7092346
-0.30783153 -0.091326714 1.5888402 1.307691
-0.27214456 -0.66635585 1.5663095 1.2792785
-0.26888895 -0.69054198 1.5652616 4.9190369
-0.35341191 -0.61902046 1.5710253 129.43852
-0.29634356 -0.70213413 1.5657855 41.472725
0 0 0 1 0 0 0 1 0 0 0 1 0 0 0 0 0 850 1 0 0
