ply
format ascii 1.0
comment PCL generated
element vertex 473
property float x
property float y
property float z
property float intensity
element camera 1
property float view_px
property float view_py
property float view_pz
property float x_axisx
property float x_axisy
property float x_axisz
property float y_axisx
property float y_axisy
property float y_axisz
property float z_axisx
property float z_axisy
property float z_axisz
property float focal
property float scalex
property float scaley
property float centerx
property float centery
property int viewportx
property int viewporty
property float k1
property float k2
end_header
0.96578312 -0.851758 0.66857672 10.089222
0.97269869 -0.83711332 0.67073548 14.353174
0.97966719 -0.82252192 0.67289603 21.841192
0.99142694 -0.80702609 0.67632961 24.309177
0.99849987 -0.79255354 0.67849362 26.389538
1.0056243 -0.77813286 0.68065953 26.420067
1.0222969 -0.7619431 0.68537259 27.823023
1.0295274 -0.74765706 0.68754244 26.513716
1.0415626 -0.7325418 0.69098771 24.495815
1.0634015 -0.62678528 0.69820285 8.7919893
1.0519993 -0.61590898 0.69527447 22.812326
1.3103387 -0.46932322 0.76497787 6.9448538
1.23224 -0.46725005 0.7441107 10.945081
1.2308862 -0.4554126 0.74375439 29.954958
1.2295697 -0.44357279 0.74339807 32.064461
1.2282898 -0.43172893 0.74304175 32.522526
1.2270474 -0.41987923 0.7426852 32.064461
1.2210383 -0.40854698 0.74104393 32.968719
1.2198694 -0.39667648 0.74068689 32.497738
1.2235444 -0.38431129 0.74161518 32.064461
1.2224514 -0.37244874 0.74125838 32.522526
1.2262049 -0.36012197 0.7421881 32.547447
1.2299988 -0.34782398 0.74311852 32.572514
1.2290204 -0.33598191 0.74276245 32.572514
1.2328925 -0.32372132 0.74369407 32.138596
1.2319894 -0.31188846 0.74333835 32.597717
1.2311232 -0.300051 0.74298251 32.597717
1.2302942 -0.28821269 0.74262667 32.597717
1.2343209 -0.27601859 0.74356043 32.623058
1.2335675 -0.26418862 0.74320495 32.623058
1.2376707 -0.25203526 0.74414003 32.648544
1.2369926 -0.24021594 0.7437849 32.188705
1.2315307 -0.228689 0.74213827 32.163578
1.2309256 -0.21685232 0.74178278 32.623058
1.2255354 -0.20527433 0.74013472 32.597717
1.2298284 -0.19317172 0.74107146 32.623058
1.2293353 -0.18132807 0.74071574 32.623058
1.2288797 -0.16948472 0.74036014 32.163578
1.2236359 -0.15784174 0.73871028 32.597717
1.2232537 -0.14597881 0.73835409 32.138596
1.2180834 -0.13428795 0.7367028 32.113743
1.2177753 -0.1224077 0.73634624 32.572514
1.2126784 -0.11066944 0.73469365 32.089035
1.212445 -0.098774113 0.73433661 32.547447
1.2122493 -0.086876318 0.73397946 32.547447
1.2120907 -0.074979775 0.73362255 32.547447
1.2071421 -0.063161418 0.73196757 32.522526
1.2070582 -0.051248938 0.73161018 32.064461
1.2070119 -0.039336257 0.73125279 32.522526
1.2118313 -0.027386725 0.73219466 32.089035
1.2118597 -0.015489131 0.73183787 32.089035
1.2167537 -0.0035852697 0.73278105 32.572514
1.2216847 0.0082862023 0.73372531 32.597717
1.2218251 0.020152653 0.73336947 32.597717
1.222003 0.032020435 0.73301363 33.070148
1.222218 0.043885753 0.73265791 32.597717
1.22247 0.055752166 0.73230219 32.138596
1.2179163 0.067042358 0.73066354 32.572514
1.2134151 0.079021022 0.72900426 32.089035
1.2137783 0.09091492 0.72864783 33.01915
1.2093768 0.10359818 0.72696733 32.522526
1.2098174 0.11550279 0.72661066 32.993866
1.2102952 0.12740785 0.72625399 32.522526
1.2108102 0.13930948 0.72589743 32.522526
1.2017176 0.15159613 0.72292888 32.943714
1.2023091 0.1635246 0.72257161 32.473091
1.2029381 0.17545116 0.72221434 32.943714
1.2036049 0.18737751 0.72185719 32.473091
0.98792505 0.28660038 0.65907431 5.196434
0.99857044 0.29848194 0.66131926 10.813563
1.0522358 0.44471082 0.66734827 7.8062859
0.95792437 0.46820843 0.64064002 26.075377
0.95473003 0.48147103 0.63894343 24.875856
0.93721676 0.49651366 0.63329268 26.635599
0.91975832 0.51167154 0.6276387 26.576487
0.92149115 0.52448577 0.6272558 25.049103
0.90413713 0.53981513 0.62159657 23.89595
0.86772394 0.55783749 0.61065567 21.229033
0.74789381 -0.83657998 0.77186203 6.5756049
0.75495672 -0.82136875 0.77366149 9.8051329
1.112499 -0.62639165 0.85697877 3.236577
1.1780651 -0.60352969 0.87209654 9.906229
1.1329036 -0.59823251 0.86177564 16.742281
1.1311274 -0.58608282 0.8614096 17.273783
1.1245668 -0.57464463 0.859936 17.837612
1.1180401 -0.56317061 0.85846144 17.268915
1.1163747 -0.55097437 0.85809416 17.83511
1.1195772 -0.53810519 0.85883558 17.549908
1.1179903 -0.52591389 0.85846853 17.549908
1.1212752 -0.51308012 0.85921115 17.840136
1.1246026 -0.50027204 0.85995471 17.842676
1.1231344 -0.48809668 0.85958821 17.842676
1.1217048 -0.47591868 0.85922164 18.140055
1.1251535 -0.46315584 0.85996646 17.557409
1.1238022 -0.45098427 0.85960019 17.557409
1.1273329 -0.43826035 0.86034638 18.145279
1.1260598 -0.42609391 0.85998034 18.145279
1.1296713 -0.41340768 0.86072755 17.850414
1.1284757 -0.40125057 0.86036187 16.751926
1.1273186 -0.38908792 0.85999602 17.283733
1.1262 -0.3769235 0.85963017 18.147921
1.129972 -0.364297 0.86037952 18.150581
1.128931 -0.35214105 0.86001396 17.565079
1.1327832 -0.33955565 0.8607645 17.567671
1.1318197 -0.32740682 0.86039925 17.28882
1.1308944 -0.31525686 0.86003399 18.153261
1.1300073 -0.3031022 0.85966861 18.153261
1.1291587 -0.29094666 0.85930324 18.153261
1.1283484 -0.27878854 0.8589378 17.855667
1.1324375 -0.26629132 0.85969126 17.858322
1.1317046 -0.25414363 0.85932624 17.858322
1.1310091 -0.24199182 0.85896111 18.155962
1.1303525 -0.22983971 0.85859603 18.155962
1.1248682 -0.21795928 0.85711014 18.153261
1.1242871 -0.20578617 0.85674447 18.153261
1.1286111 -0.19337007 0.85750055 18.463688
1.1281068 -0.18120885 0.85713536 18.782028
1.1276412 -0.16904795 0.85677016 18.463688
1.122345 -0.15708286 0.85528183 16.756855
1.1268244 -0.14472021 0.8560397 15.787792
1.1264729 -0.13255547 0.85567451 15.129967
1.1261601 -0.12038781 0.85530925 15.562252
1.1258855 -0.1082211 0.85494405 15.343065
1.1305192 -0.095932841 0.85570419 15.132233
1.130321 -0.083778083 0.85533941 16.761858
1.1252911 -0.071714744 0.85384846 16.759348
1.1251693 -0.059543684 0.85348326 16.019966
1.1250858 -0.047374152 0.85311812 15.562252
1.1250408 -0.035204411 0.85275304 17.291391
1.1201625 -0.023061695 0.85125983 18.779234
1.1201942 -0.010876598 0.85089433 18.779234
1.1202638 0.0013101678 0.85052884 17.018681
1.1203718 0.01349481 0.85016346 17.018681
1.1205182 0.025679072 0.84979808 17.018681
1.1207027 0.037864655 0.84943271 17.28882
1.1209254 0.050047733 0.84906745 17.567671
1.1163168 0.062308192 0.84757102 17.286268
1.1165993 0.073829241 0.84722567 17.016171
1.1120663 0.086132899 0.8457278 17.013676
1.1124413 0.098344743 0.84536183 17.850414
1.1128786 0.11123358 0.84497559 17.562504
1.113332 0.12343904 0.84460986 18.147921
1.1138241 0.1356467 0.84424412 18.455511
1.1143546 0.14785093 0.84387851 18.455511
1.1100583 0.1602557 0.84237802 18.145279
1.1106663 0.17247166 0.84201217 17.847816
1.1064487 0.18491662 0.84051037 18.142656
1.1022716 0.1973919 0.83900785 18.140055
1.1029963 0.20963213 0.83864135 18.140055
1.0988986 0.22214866 0.83713746 17.552391
1.0997012 0.23439935 0.83677071 17.273783
1.0956836 0.24695477 0.83526587 17.549908
1.0965645 0.25921729 0.83489877 17.549908
1.092627 0.27181301 0.83339286 17.268915
1.0935867 0.28408504 0.83302557 16.999088
1.0897298 0.29672045 0.83151835 16.996717
1.0907671 0.30899957 0.83115095 16.996717
1.0869918 0.32167608 0.82964277 16.732916
1.0881081 0.33396363 0.82927519 16.732916
1.0892627 0.34624955 0.82890767 16.732916
1.0856087 0.35897443 0.82739794 17.261745
1.0819962 0.37172601 0.82588762 16.728333
1.0192158 0.46625799 0.8061263 2.46646
1.0256202 0.47817641 0.80689907 5.3204679
0.8195405 0.51630694 0.75721192 2.7562695
0.68126345 0.54717284 0.72354805 5.1822925
0.68309975 0.56073564 0.72314286 10.999151
0.89489651 -0.77568769 0.95560205 8.8580399
0.87806702 -0.76548231 0.952416 15.939741
0.87092638 -0.75341344 0.95109266 20.174919
0.86865616 -0.7404424 0.95070159 20.433571
0.87126446 -0.72661299 0.95124412 20.700962
0.87391853 -0.71280503 0.95178735 19.680626
0.87177563 -0.69984365 0.9513967 20.437574
0.86967373 -0.68687356 0.95100582 20.702997
0.86761189 -0.67389894 0.95061481 20.702997
0.87044144 -0.66014272 0.9511596 19.682573
0.8636117 -0.6479286 0.94983232 18.536406
0.87138224 -0.63344568 0.95131469 16.608826
0.85791779 -0.60892826 0.94865745 9.2682018
0.85124111 -0.59661615 0.94732714 8.8554106
0.84946346 -0.58358204 0.94693464 8.3019485
0.85259199 -0.56987607 0.94748139 7.8143678
0.86550045 -0.55488694 0.94990808 7.382441
0.87359238 -0.54062408 0.95139742 7.2496848
0.87686157 -0.52703989 0.95194787 7.2504282
0.87530184 -0.51408666 0.95155799 7.5240297
0.87378359 -0.50113052 0.951168 7.3846946
0.8674283 -0.48874441 0.94983584 7.5232582
0.87086773 -0.47520238 0.95038772 7.3846946
0.86947155 -0.46223253 0.94999743 7.5240297
0.87299681 -0.4487257 0.95055044 7.2511759
0.8716836 -0.43576267 0.95016044 7.3854561
0.87529564 -0.4222956 0.95071465 7.5255876
0.8789506 -0.40885332 0.95126969 7.252687
0.87776232 -0.39590916 0.95088035 7.5263734
0.88150358 -0.38250542 0.95143664 7.1239243
0.88039827 -0.36956945 0.95104766 7.3877735
0.88422441 -0.3562068 0.9516052 7.6727324
0.88809395 -0.34286964 0.95216364 7.3893452
0.88711262 -0.32995456 0.95177537 7.8240142
0.88617229 -0.31703448 0.95138699 7.3893452
0.88527203 -0.30411351 0.9509986 7.6735511
0.88441277 -0.29118973 0.95061022 7.9804935
0.88359404 -0.27826136 0.95022166 7.8240142
0.88281584 -0.26533246 0.94983315 7.8240142
0.88697767 -0.25209895 0.95039475 8.1442375
0.88628149 -0.2391808 0.95000666 8.3139086
0.88562632 -0.22626053 0.94961852 8.1442375
0.88501167 -0.21333629 0.94923031 8.1442375
0.88934088 -0.2001735 0.94979435 7.9822164
0.88390398 -0.18748432 0.9484539 7.9813519
0.8883152 -0.17434897 0.94901878 7.8257031
0.88786364 -0.1614354 0.94863105 7.8257031
0.8874526 -0.1485185 0.9482432 7.5303936
0.88708162 -0.13560234 0.94785547 7.3909407
0.88675165 -0.12268313 0.94746763 7.0019445
0.88646269 -0.10976488 0.9470799 6.3350921
0.90072489 -0.08362399 0.94917339 5.7034607
0.89565182 -0.070834436 0.94783038 4.641839
0.90043163 -0.057873253 0.94840074 4.2472577
0.88562489 -0.045159683 0.94514126 4.4843912
0.85122871 -0.03250698 0.9380464 6.1356101
0.86594486 -0.019406738 0.94053143 8.4880819
0.87088776 -0.006416101 0.94110113 4.5338879
0.88077831 0.0065376405 0.94263119 9.2806406
0.88089514 0.019473994 0.94224328 9.5016098
0.88105297 0.032409944 0.94185537 9.0697184
0.88125038 0.045347266 0.94146746 8.1442375
0.87658358 0.058353432 0.94011837 8.4898882
0.87686348 0.071300745 0.93973023 8.6744499
0.87716532 0.08353173 0.9393636 8.313014
0.87261963 0.096593931 0.93801278 8.1424932
0.8730197 0.10955743 0.93762428 7.9796419
0.87348557 0.12323959 0.93721426 7.9796419
0.86906672 0.13635829 0.93586177 7.9787955
0.86959171 0.14933276 0.93547308 7.6719189
0.87015724 0.16230357 0.93508446 7.5271664
0.86586285 0.17548262 0.9337303 7.6711106
0.86651134 0.18846501 0.9333415 7.5263734
0.8623004 0.20168421 0.93198627 7.5255876
0.86303139 0.21467957 0.93159705 7.8207088
0.85890579 0.22794034 0.93024069 7.8198962
0.85971928 0.24094631 0.92985129 7.3854561
0.85078049 0.25454855 0.92752528 7.2496848
0.84188747 0.26820955 0.9251976 6.9938922
0.82814646 0.28226233 0.92189902 6.3259158
0.85461473 0.30665222 0.92596573 4.7468166
0.85078573 0.32004654 0.92460561 4.3336101
0.85677814 0.33268297 0.92518681 4.9226255
0.85792112 0.34569514 0.92479748 4.9841576
0.8346734 0.36082023 0.91954827 4.6341019
0.8163662 0.37565443 0.91526699 5.5330238
0.81276178 0.38924533 0.91390121 5.532495
0.81408262 0.40239346 0.913508 5.3829679
0.81056595 0.41602409 0.91214097 5.1727509
0.80709314 0.42968097 0.91077322 5.2403193
0.80366516 0.44336203 0.90940481 5.2398291
0.7954073 0.45759976 0.90706044 5.1708212
0.79694414 0.47080201 0.90666574 9.2593765
0.78390837 0.4856852 0.90334278 12.438888
0.78553343 0.49892554 0.90294707 18.731503
0.78720045 0.51215863 0.90255159 17.30628
0.69645977 0.53692198 0.88358349 15.584566
0.3680234 -0.91461229 1.0199931 4.7096386
0.39920187 -0.89346766 1.0248804 8.8049479
0.39648771 -0.87901485 1.0244445 17.41638
0.38410378 -0.86637467 1.0224845 18.420713
0.37661505 -0.85277081 1.0212851 14.530543
0.63815928 -0.67777783 1.0617886 4.7840958
0.6410017 -0.66333342 1.0621427 4.9627371
0.62923145 -0.65109473 1.0601954 5.4290147
0.63216257 -0.63665313 1.0605497 5.1521034
0.64003181 -0.62153894 1.0616732 5.2220774
0.64305973 -0.60715991 1.0620294 4.965663
0.64613533 -0.59280801 1.0623864 4.9065623
0.64435911 -0.57913023 1.0619745 4.6245761
0.64262772 -0.56544894 1.0615627 4.7333899
0.64093876 -0.55176222 1.0611506 4.6783504
0.64419556 -0.53746337 1.0615095 4.3275061
0.64259434 -0.52378178 1.0610976 4.3275061
0.65575409 -0.508371 1.0630015 4.5775189
0.65915298 -0.49416718 1.0633633 4.4279571
0.66750717 -0.47944629 1.0644989 4.1141915
-0.51759624 -0.59303707 0.87771004 4.0730939
-0.55865335 -0.57980579 0.87099808 5.0205641
-0.56527901 -0.5628435 0.86969852 5.3305163
-0.55710363 -0.54439789 0.87072212 5.2019916
-0.56362009 -0.52740967 0.86942202 5.0796289
-0.56024837 -0.50948191 0.869672 5.26543
-0.56173754 -0.49201798 0.86914688 5.4653835
-0.56317186 -0.47454947 0.86862159 5.1400628
-0.56455183 -0.45707393 0.86809623 5.1400628
-0.56095219 -0.439208 0.86834836 5.2653933
-0.5671463 -0.42211288 0.86704522 5.26543
-0.56836128 -0.4046278 0.86651969 5.0795918
-0.56459379 -0.3867965 0.86677307 5.2653933
-0.56569767 -0.36931694 0.86624777 5.2653933
-0.56674671 -0.35183659 0.86572248 5.2019553
-0.56774044 -0.33435041 0.86519712 5.140027
-0.56867981 -0.31686383 0.86467177 5.5354137
-0.57449532 -0.29963934 0.86336505 5.4653835
-0.56546068 -0.2816301 0.86440253 5.3969932
-0.56130123 -0.26391694 0.86465979 5.4652767
-0.55708551 -0.2462298 0.86491776 5.079463
-0.54787922 -0.22837107 0.86595994 4.7972217
-0.53368235 -0.21038485 0.86778754 4.7444458
-0.53423309 -0.19300321 0.8672657 4.7971621
-0.50017929 -0.17452693 0.87223548 4.1117926
-0.46112871 -0.15612255 0.8779968 4.1118212
-0.44176483 -0.13846961 0.88062376 4.8510885
-0.44209051 -0.12137958 0.8801108 5.2017698
-0.4571743 -0.10456958 0.87723869 4.851038
-0.48207855 -0.087826341 0.87279022 4.7970924
-0.48224497 -0.070607364 0.87227356 4.4972739
-0.47741985 -0.053342585 0.87254477 4.1117978
0.050817966 -0.01712046 0.95590413 3.7692833
0.050863266 -0.0015755836 0.95543784 4.0000558
0.055893898 0.013952656 0.95576131 4.0419965
0.056036949 0.02947907 0.95529568 4.6126313
0.056229115 0.045004964 0.95483011 4.5589967
0.086090565 0.060169209 0.9591108 4.1754265
0.25421429 0.073016934 0.98555893 3.5276883
-0.51266766 0.29289249 0.85506415 3.8548286
-0.49192429 0.30909324 0.85773593 4.1916332
-0.38244247 0.31989658 0.87477529 4.1919727
0.42163944 0.28652745 1.0044174 3.8269122
0.43248224 0.30025622 1.005585 3.8659792
0.37173223 0.58317977 0.98291713 5.9177918
0.42259312 0.59138811 0.99056423 13.704126
0.38541317 0.61094409 0.983666 24.040838
0.38742685 0.62543499 0.98323309 24.410698
0.38459873 0.64059573 0.98199105 24.405092
0.37693501 0.65647441 0.97993821 24.393955
0.37909174 0.67098951 0.9795047 24.393955
0.36665487 0.68767321 0.97663867 24.377462
0.35427523 0.70444208 0.9737702 23.992107
0.33708096 0.72204614 0.97008753 21.973547
0.46028996 -0.67057705 1.1953685 3.5505571
-0.62396765 -0.68689418 1.0621254 4.7843122
-0.63589048 -0.67040235 1.0603966 6.2305765
-0.60721922 -0.61349761 1.0629981 3.7312815
-0.59424543 -0.59431088 1.0642695 6.5244837
-0.59108114 -0.57623154 1.064342 7.2474823
-0.59279871 -0.558671 1.0638137 6.8660369
-0.59940195 -0.5415802 1.0626833 6.867877
-0.60101032 -0.52399373 1.0621545 7.1176181
-0.60256386 -0.50639963 1.0616254 7.2494249
-0.59911585 -0.48836952 1.0616994 7.5262318
-0.60055685 -0.47078684 1.0611708 7.5262318
-0.60194254 -0.45319441 1.0606418 7.5262318
-0.59832478 -0.4352158 1.0607176 7.8251872
-0.59959984 -0.41763052 1.060189 7.6717534
-0.60081816 -0.40004399 1.0596604 7.6717534
-0.60198164 -0.38245377 1.0591317 7.8251872
-0.60308981 -0.36485726 1.058603 7.9848862
-0.59918976 -0.34695327 1.0586812 7.8230963
-0.60018682 -0.32936573 1.0581527 7.8230963
-0.60608339 -0.31205347 1.0570164 7.9848862
-0.60696983 -0.29444712 1.0564876 7.9848862
-0.60780144 -0.27683535 1.0559585 7.8251872
-0.60857773 -0.25922379 1.0554296 7.5242186
-0.59442425 -0.24096695 1.05673 7.6656122
-0.59508801 -0.22339755 1.0562024 7.8189235
-0.58577824 -0.20546159 1.0568962 7.3724184
-0.47436953 -0.080943741 1.0673325 4.5693021
-0.46957016 -0.06369447 1.0674313 5.3190484
-0.45975542 -0.046433918 1.068146 5.3163104
-0.45484781 -0.029261885 1.0682471 5.8786502
-0.44492531 -0.012107439 1.068965 6.3572445
-0.43991041 0.0049892832 1.0690684 6.461545
-0.43484259 0.022051988 1.0691729 6.2515106
-0.4297204 0.039083101 1.0692785 6.2499142
-0.4295063 0.056133948 1.0687672 6.1507087
-0.41435528 0.072985552 1.0701107 6.1460123
-0.42395782 0.090155691 1.0683634 6.9177828
-0.39878082 0.10669474 1.0709488 5.8621869
-0.43208981 0.15762213 1.0651088 4.5599246
-0.43642807 0.17579044 1.0639482 6.6843557
-0.42090988 0.1923309 1.0653012 6.2483211
-0.42517233 0.20954755 1.0641692 5.5356379
-0.42442274 0.22658324 1.0636588 5.1665955
-0.42361975 0.24361911 1.0631485 4.2118983
-0.43267441 0.26112643 1.0613916 3.8769264
-0.44662571 0.27894709 1.0590091 3.9191003
-0.45556498 0.29659128 1.0572482 4.5138435
-0.45949411 0.31400701 1.0561106 5.247169
-0.46831894 0.33175367 1.0543466 4.9806542
-0.57114697 0.35556236 1.0406924 4.292685
-0.66319227 -0.50484389 1.2550097 3.2441895
-0.64629936 -0.46762303 1.2556546 3.2721477
-0.64272738 -0.44949207 1.2555504 3.21275
-0.63909674 -0.4313907 1.2554474 3.2712526
-0.65031433 -0.4144063 1.2540547 3.3024452
-0.64657116 -0.39631251 1.2539519 3.21275
-0.65768194 -0.37924507 1.2525569 3.3028986
-0.65879774 -0.36147416 1.2520229 3.3028986
-0.63499737 -0.34219378 1.2536486 3.3006444
-0.65275478 -0.28985643 1.2507532 3.1840649
-0.014540672 -0.67998058 1.4943178 4.7117825
-0.056233406 -0.66947311 1.4918879 17.085606
-0.053333759 -0.65295058 1.4916546 18.441425
-0.055335045 -0.6370793 1.4911768 20.80571
-0.047372818 -0.61998463 1.4911906 22.531567
-0.044311523 -0.60353678 1.4909596 23.171249
-0.046157837 -0.58769166 1.4904827 23.507065
-0.047953606 -0.57184327 1.4900057 22.527605
-0.04970026 -0.55598927 1.4895287 21.341942
-0.051396847 -0.54012984 1.4890515 20.531488
-0.048076153 -0.52374762 1.4888227 20.271284
-0.049671173 -0.50789112 1.4883456 20.021023
-0.046245098 -0.49155053 1.4881183 20.267738
-0.042768478 -0.47523165 1.4878917 20.014021
-0.039237976 -0.45894167 1.4876659 20.01053
-0.040629387 -0.44311324 1.4871898 20.01053
-0.036995411 -0.42686138 1.4869653 20.00705
-0.038285732 -0.41104251 1.4864897 19.763062
-0.034548759 -0.39482713 1.4862663 19.759634
-0.030759811 -0.37864158 1.4860438 19.75621
-0.026918411 -0.36248124 1.4858222 18.758738
-0.023025513 -0.34635103 1.4856015 18.535666
-0.02406311 -0.33057636 1.4851274 18.761711
-0.025051117 -0.31479618 1.4846532 18.993338
-0.025990486 -0.29901537 1.484179 18.761711
-0.026878834 -0.28322926 1.4837048 18.761711
-0.027719021 -0.26744288 1.4832305 18.761711
-0.023520947 -0.25140455 1.4830129 18.996363
-0.024260521 -0.23562644 1.4825389 18.7647
-0.024950504 -0.21984608 1.482065 18.7647
-0.020601749 -0.2038637 1.4818492 18.999409
-0.021191597 -0.18809739 1.4813757 19.2369
-0.02173233 -0.17232931 1.4809022 19.2369
-0.022223473 -0.15655719 1.4804287 18.999409
-0.022665024 -0.14078362 1.4799552 18.999409
-0.023056984 -0.12501115 1.4794817 19.2369
-0.023398876 -0.10923749 1.4790083 18.999409
-0.023691654 -0.093462862 1.4785348 18.999409
-0.028927326 -0.077761933 1.4777995 18.7647
-0.029120922 -0.061967682 1.4773256 18.996363
-0.029264927 -0.046175305 1.4768517 18.996363
-0.029359818 -0.030382562 1.476378 18.996363
-0.02940464 -0.014589583 1.4759042 18.7647
-0.029399395 0.0012058718 1.4754304 18.7647
-0.029345036 0.017001193 1.4749566 18.53862
-0.034234047 0.032826725 1.4742179 18.535666
-0.034080029 0.048634682 1.4737438 18.761711
-0.033876896 0.064442083 1.4732698 18.535666
-0.038615227 0.080331028 1.4725293 18.758738
-0.038312435 0.096154913 1.472055 18.532728
-0.042951584 0.11208423 1.4713132 19.75621
-0.047562599 0.12716788 1.470597 19.759634
-0.052102566 0.14315891 1.4698536 19.524952
-0.051573277 0.15990612 1.4693518 19.524952
-0.056008816 0.17594425 1.4686069 19.295868
-0.055404663 0.19181746 1.4681313 19.295868
-0.059740067 0.20789878 1.4673854 18.850416
-0.064022541 0.22400929 1.4666387 19.075518
-0.068254948 0.24014644 1.4658911 19.078856
-0.072435379 0.25631246 1.4651427 18.860321
-0.076563835 0.27250716 1.4643936 18.646814
-0.080639839 0.28873283 1.4636436 18.438168
-0.084665298 0.30498686 1.4628928 18.441425
-0.088638306 0.32126671 1.462141 18.873634
-0.097539902 0.33790502 1.4611146 18.451241
-0.096426487 0.3539103 1.4606355 18.880339
-0.08530426 0.36919099 1.4607065 20.809391
-0.07413578 0.38440531 1.4607794 22.535538
-0.07287693 0.40033692 1.4603027 22.85294
-0.071567535 0.41626441 1.459826 22.226833
-0.070208073 0.43218774 1.4593496 20.538717
-0.14191103 0.47085857 1.4542303 12.325218
-0.15031862 0.48794472 1.4531908 6.6701746
-0.49857092 -0.14655319 1.6425285 4.6546459
0 0 0 1 0 0 0 1 0 0 0 1 0 0 0 0 0 473 1 0 0
