ply
format ascii 1.0
comment PCL generated
element vertex 469
property float x
property float y
property float z
property float intensity
element camera 1
property float view_px
property float view_py
property float view_pz
property float x_axisx
property float x_axisy
property float x_axisz
property float y_axisx
property float y_axisy
property float y_axisz
property float z_axisx
property float z_axisy
property float z_axisz
property float focal
property float scalex
property float scaley
property float centerx
property float centery
property int viewportx
property int viewporty
property float k1
property float k2
end_header
1.5155888 -0.72964787 0.68221343 7.8316631
1.4561176 -0.72807419 0.66656172 21.146378
1.4820814 -0.70963609 0.67380762 24.014811
1.4891467 -0.69513232 0.67597091 25.739126
1.4962621 -0.68068081 0.67813551 26.711361
1.508178 -0.66536885 0.68157482 27.773966
1.5106466 -0.65193242 0.68246984 27.442846
1.5179138 -0.63763607 0.68463969 24.69684
1.5252311 -0.62339449 0.68681097 22.686995
1.5636094 -0.52815896 0.69824433 8.0274677
1.5713069 -0.51429933 0.70042717 13.864986
1.5599403 -0.50341922 0.69749904 22.841042
1.7385814 -0.37978417 0.74578834 9.6539049
1.7419844 -0.36737189 0.74671507 6.3335447
1.7214394 -0.35789078 0.74122846 22.069092
1.7201154 -0.34602308 0.74087131 31.57106
1.7140276 -0.33469895 0.73923028 31.115078
1.707974 -0.32334068 0.73758817 31.967524
1.706759 -0.31142905 0.73722982 32.424202
1.7055809 -0.29951367 0.73687136 32.894119
1.7092474 -0.28710189 0.73779833 31.991556
1.7081461 -0.27519444 0.73744023 32.448578
1.7118914 -0.26282108 0.73836839 32.473091
1.7156773 -0.25047645 0.73929739 32.497738
1.7195027 -0.23815888 0.74022722 32.522526
1.7233682 -0.22586668 0.74115813 32.547447
1.7224584 -0.21400386 0.74080145 32.547447
1.7264018 -0.20175132 0.74173343 32.572514
1.7255678 -0.18989816 0.74137712 32.572514
1.729589 -0.17768759 0.7423104 32.138596
1.7336493 -0.16550297 0.74324441 32.163578
1.732929 -0.15367278 0.74288893 32.623058
1.7274253 -0.14214802 0.74124241 32.138596
1.721957 -0.13059273 0.73959494 30.811838
1.7165246 -0.11900517 0.73794663 32.547447
1.7159507 -0.10711958 0.7375896 32.547447
1.7154145 -0.095234059 0.73723257 32.547447
1.7197399 -0.083111383 0.73816884 32.113743
1.7192788 -0.071237884 0.73781228 32.113743
1.7140298 -0.059566431 0.73616147 32.089035
1.7136431 -0.047673307 0.73580444 32.547447
1.7132931 -0.035780855 0.73544741 32.547447
1.7081544 -0.024043486 0.73379469 32.522526
1.7078795 -0.012133889 0.73343718 32.064461
1.7028146 -0.00035113096 0.73178327 32.497738
1.7026138 0.011576928 0.73142529 32.497738
1.7024512 0.023503758 0.73106742 32.497738
1.7023256 0.035432838 0.73070943 32.497738
1.7022374 0.04736045 0.73035157 32.040024
1.7021871 0.059288278 0.72999382 32.497738
1.7021739 0.071218021 0.72963595 32.497738
1.7021985 0.083145946 0.72927821 32.497738
1.7070885 0.095081836 0.73022044 32.522526
1.7071879 0.10699422 0.72986317 32.993866
1.7073247 0.1189062 0.72950602 32.522526
1.7074988 0.1308195 0.72914875 32.522526
1.7028835 0.14278477 0.72748983 32.497738
1.7031178 0.15404941 0.72715211 32.968719
1.698576 0.16605774 0.72549188 32.473091
1.6988986 0.17799652 0.72513413 32.473091
1.6944337 0.19005014 0.7234726 32.448578
1.6948314 0.20200178 0.72311449 32.448578
1.6952929 0.214616 0.72273648 32.448578
1.6957681 0.22656664 0.72237837 32.448578
1.6962812 0.23851392 0.72202051 32.448578
1.7016227 0.24960783 0.72298837 32.943714
1.6925642 0.26194674 0.72001827 32.894119
1.6931884 0.27390391 0.71966016 32.424202
1.6890681 0.28676113 0.7179749 32.399963
1.5551968 0.38041124 0.67746341 4.8319163
1.5658209 0.3920849 0.67971468 18.546478
1.5268795 0.44455191 0.66644228 4.9392767
1.5376937 0.45616484 0.66869557 6.0867615
1.5568628 0.542795 0.6687057 8.2776022
1.4481673 0.56790239 0.63804877 25.739126
1.4449716 0.58119589 0.63635099 25.133142
1.4322443 0.59567922 0.63201737 26.299967
1.4099965 0.61144453 0.62504482 25.915339
1.416512 0.62367594 0.62597966 25.326477
1.3943744 0.63964069 0.61900115 24.135563
1.3627386 0.65703881 0.60937941 21.428154
1.2241068 -0.74203372 0.76638126 5.4999795
1.2311535 -0.72674608 0.76817834 10.57015
1.6878996 -0.50333875 0.87434894 6.6464486
1.6234663 -0.50107616 0.85960323 16.737564
1.6168609 -0.48962888 0.85812926 17.545
1.6151125 -0.47743061 0.8577618 17.545
1.6037529 -0.46663031 0.85517848 17.827703
1.6069038 -0.4537026 0.85591829 17.264118
1.6004395 -0.44214472 0.85444111 17.827703
1.5988407 -0.42989329 0.85407221 17.827703
1.6069465 -0.41635856 0.85592276 17.832623
1.6102633 -0.40350184 0.85666478 17.83511
1.6087854 -0.39128146 0.85629696 18.13236
1.6121845 -0.37846294 0.85704011 17.837612
1.6107852 -0.3662487 0.85667247 18.134905
1.6142669 -0.35346881 0.85741693 18.137472
1.612946 -0.34126124 0.85704958 18.137472
1.6116636 -0.32904962 0.85668218 18.444885
1.6104195 -0.31683585 0.85631472 17.840136
1.6140623 -0.30411407 0.85706109 16.744665
1.6128967 -0.29190609 0.85669386 17.0063
1.6166203 -0.2792227 0.85744131 18.142656
1.6155329 -0.26702291 0.85707438 17.845236
1.6193376 -0.25437835 0.85782325 17.559948
1.6183279 -0.24218908 0.85745674 17.847816
1.6173563 -0.22999483 0.85709012 17.281218
1.6164234 -0.21779943 0.85672343 17.559948
1.6203871 -0.20521709 0.85747415 17.850414
1.6195321 -0.19303134 0.85710788 17.850414
1.6235759 -0.18049127 0.85786003 17.565079
1.622798 -0.1683138 0.85749406 17.565079
1.6220586 -0.1561358 0.85712814 17.565079
1.6213577 -0.14395368 0.85676211 17.565079
1.6206949 -0.13177127 0.85639608 18.150581
1.6200705 -0.11958685 0.85603005 18.150581
1.6194842 -0.10739867 0.85566396 18.150581
1.6189365 -0.09521056 0.85529786 18.150581
1.6184268 -0.083018936 0.85493171 18.150581
1.6179554 -0.070827626 0.85456562 18.776463
1.6223907 -0.058435999 0.85532248 17.018681
1.6219966 -0.046255387 0.85495675 16.017582
1.6265104 -0.033907153 0.85571504 15.562252
1.6261928 -0.021739624 0.85534978 16.019966
1.6259141 -0.0095730051 0.85498458 15.787792
1.6256733 0.0025944486 0.85461944 15.129967
1.6254711 0.014764428 0.85425419 16.259069
1.6204357 0.026841298 0.85276276 17.018681
1.6203101 0.039027609 0.85239714 15.785443
1.6202223 0.051212423 0.85203153 15.785443
1.6201727 0.063397445 0.85166597 17.018681
1.6152906 0.075553775 0.8501724 18.776463
1.6153178 0.087754145 0.84980643 18.458216
1.6153834 0.099956267 0.84944052 17.286268
1.6154873 0.11215623 0.84907466 17.565079
1.610759 0.12438639 0.84757882 17.283733
1.6109395 0.13660263 0.84721255 17.013676
1.6111588 0.14881636 0.8468464 18.147921
1.6065314 0.16042835 0.8453694 17.847816
1.6068258 0.17265584 0.84500289 17.559948
1.6022892 0.1849885 0.84350419 17.845236
1.6026607 0.19723105 0.84313726 17.845236
1.6030705 0.20947051 0.84277046 17.845236
1.603545 0.22238851 0.84238338 17.845236
1.5991676 0.23479515 0.84088278 18.140055
1.5996957 0.24704537 0.84051579 18.447512
1.60023 0.25861537 0.84016919 18.140055
1.595968 0.27107531 0.83866692 18.137472
1.5966103 0.28333548 0.83829975 18.444885
1.5924668 0.29652089 0.83677584 18.134905
1.5931895 0.30879191 0.83640838 18.134905
1.5890894 0.32133758 0.83490384 17.83511
1.5898898 0.33361903 0.83453614 17.547445
1.5858696 0.3462036 0.83303028 17.832623
1.5818906 0.35881785 0.83152384 17.264118
1.5828092 0.37112176 0.83115554 17.264118
1.5789106 0.38377607 0.82964778 17.261745
1.5750535 0.39645588 0.82813936 16.728333
1.5760322 0.40809646 0.82779104 16.728333
1.5771058 0.42042041 0.82742232 16.728333
1.5782182 0.43273905 0.82705379 16.728333
1.5793693 0.44505602 0.82668531 16.728333
1.5757115 0.45780948 0.82517481 17.257055
1.5624728 0.47219101 0.82135773 16.220284
1.4916186 0.5808472 0.79891616 4.5951924
1.3241796 0.61425328 0.75840223 2.873817
1.1762342 0.64627588 0.72244596 5.1819167
1.1780682 0.65985447 0.72204018 10.998353
1.3757205 -0.68005538 0.95189601 7.8128371
1.3588777 -0.66979229 0.94870836 14.891201
1.3517237 -0.657664 0.94738322 19.669224
1.363946 -0.64203054 0.94979006 20.431591
1.356874 -0.62988979 0.94846463 20.429625
1.3596387 -0.61675823 0.94902825 19.674864
1.3623266 -0.60292935 0.94957078 20.433571
1.3602152 -0.58992958 0.94917899 20.698942
1.3629923 -0.57613295 0.94972265 20.700962
1.3609648 -0.56313747 0.94933105 20.700962
1.3638301 -0.54937196 0.94987577 19.440619
1.361887 -0.5363791 0.94948435 18.754478
1.3648405 -0.5226472 0.95002997 17.714317
1.3611627 -0.49666247 0.9492473 5.9488378
1.349659 -0.48503038 0.94697821 4.8596768
1.3430529 -0.47266355 0.94564641 9.055788
1.3462181 -0.458949 0.94619286 8.4785872
1.3494282 -0.44526371 0.94674033 7.970654
1.3478117 -0.43222424 0.94634777 7.970654
1.351109 -0.41857085 0.94689608 8.1341267
1.3495765 -0.40553871 0.94650382 7.8151407
1.3529625 -0.39192152 0.94705337 7.9722366
1.3563914 -0.37833232 0.94760376 7.5217333
1.3598657 -0.36476928 0.94815505 7.5224929
1.3585014 -0.35176301 0.94776368 7.5224929
1.3620615 -0.33823735 0.9483161 7.6679349
1.3656664 -0.32473835 0.94886941 7.6687217
1.3693142 -0.31126404 0.94942349 7.5248055
1.3681183 -0.2982896 0.94903326 7.1216898
1.3718519 -0.28485388 0.94958854 7.5255876
1.3707395 -0.2718876 0.9491986 7.5255876
1.3696675 -0.25891787 0.94880867 7.5255876
1.3686361 -0.24594283 0.94841856 7.3862238
1.3725386 -0.23257244 0.94897592 7.5263734
1.3715906 -0.21960658 0.94858617 7.5263734
1.3755789 -0.20627627 0.94914484 7.6719189
1.3747125 -0.19332209 0.9487555 7.6719189
1.3787851 -0.18003049 0.94931549 7.5279651
1.3780012 -0.16708648 0.94892651 7.8231792
1.3821578 -0.15383613 0.94948775 7.5287681
1.3765564 -0.1411894 0.94814843 7.9796419
1.3758945 -0.12823859 0.94775939 7.9796419
1.3752742 -0.11528378 0.94737023 8.1424932
1.3746939 -0.10232905 0.94698113 7.8231792
1.3741546 -0.089370601 0.94659197 7.8231792
1.3785601 -0.076202892 0.94715589 7.8240142
1.3781028 -0.06325867 0.94676721 7.8240142
1.377686 -0.050311126 0.94637847 7.3893452
1.3773098 -0.037364282 0.94598979 7.3893452
1.3818803 -0.024266399 0.94655579 7.255775
1.3766804 -0.011465423 0.94521236 7.000433
1.38624 0.0017186999 0.94673526 5.5432057
1.3958402 0.014843859 0.94826013 5.7854795
1.4054818 0.027906016 0.94978672 5.5456486
1.4004436 0.04069623 0.94844365 4.8688073
1.3905396 0.053460136 0.94614208 4.5879807
1.3757677 0.066245809 0.94288051 5.1157007
1.3610363 0.07912603 0.93961608 7.1231737
1.3659744 0.09213379 0.94018525 8.8653278
1.370954 0.10511255 0.94075537 9.2786531
1.3710666 0.11807977 0.94036651 4.5338879
1.3761263 0.13100961 0.94093817 9.5005884
1.3714142 0.14401482 0.93958884 8.4889822
1.3716493 0.1569804 0.93920016 8.3121271
1.3670025 0.16930923 0.93787122 8.3112459
1.3673172 0.18228857 0.93748212 8.3112459
1.367672 0.19526684 0.93709314 8.3112459
1.3631635 0.20837446 0.93574095 7.9779553
1.3636007 0.22136562 0.93535167 7.8215256
1.3641062 0.23507702 0.93494081 7.6711106
1.3646283 0.24806705 0.9345516 7.6711106
1.3602881 0.26124448 0.9331975 7.3862238
1.3559561 0.27372977 0.9318642 7.3854561
1.3516984 0.28696421 0.93050843 7.5240297
1.3523831 0.29999104 0.93011826 7.6687217
1.3482513 0.31399372 0.92873955 7.6679349
1.349021 0.32703125 0.92834914 7.6679349
1.3547292 0.33978486 0.92892665 7.6687217
1.3408909 0.35369813 0.92563206 7.382441
1.331995 0.36738679 0.92330354 6.9924936
1.3182516 0.38146549 0.92000407 6.753469
1.3496079 0.40556586 0.92503893 5.3877311
1.350666 0.41859865 0.92464888 5.2459483
1.3565917 0.43051425 0.92525166 6.0414038
1.357728 0.44352695 0.92486233 6.0414038
1.3344722 0.45863795 0.9196136 5.1757498
1.3210416 0.47302848 0.91630495 5.9465075
1.3076611 0.48750505 0.91299391 5.6900258
1.3041697 0.50186819 0.91160494 5.5314484
1.3006511 0.51552814 0.91023707 5.4551649
1.2971773 0.52921242 0.90886855 5.5304165
1.2937479 0.542925 0.90749913 5.5299058
1.2903628 0.55666149 0.90612906 5.6072774
1.291811 0.56914538 0.90575588 5.8546581
1.2934732 0.58309495 0.90533888 18.096214
1.2950907 0.59630513 0.90494406 18.734903
1.2772775 0.61186892 0.90064144 16.93503
1.2011294 0.6348148 0.88460577 14.322086
0.8390913 -0.82116866 1.015455 4.4393377
0.84114122 -0.80558425 1.0157743 6.0797648
0.87236738 -0.78445601 1.0206621 7.4675975
0.86968136 -0.76991689 1.0202236 17.99012
0.86704159 -0.75537157 1.0197849 14.524133
1.1160803 -0.5968737 1.0584177 3.7857053
1.1188607 -0.58234072 1.058769 4.6674361
1.1070352 -0.57006866 1.0568209 5.0146327
1.1147919 -0.5548085 1.0579395 5.2129803
1.1226006 -0.53960556 1.0590602 5.2159824
1.1255693 -0.52515674 1.0594143 5.0854063
1.1285849 -0.51073068 1.0597692 5.0233011
1.1267548 -0.49699971 1.0593556 4.7278128
1.1298637 -0.48260829 1.0597115 4.843153
1.1281199 -0.46888146 1.0592983 4.6204791
1.1313224 -0.45452723 1.0596554 4.5693173
1.1345701 -0.44019637 1.0600133 4.3249321
1.1378646 -0.4258934 1.0603719 4.3732405
1.1412067 -0.41161409 1.0607314 4.3745446
1.1445947 -0.39736289 1.0610919 4.5747581
1.1480289 -0.38313779 1.0614531 4.1091824
-0.0075759888 -0.49390331 0.87931454 3.8548625
-0.063373089 -0.48225942 0.87028259 4.7974648
-0.070005417 -0.46528402 0.86898273 5.140182
-0.076586723 -0.44826981 0.86768168 5.2655973
-0.078197479 -0.43075439 0.86715484 5.2021565
-0.074834824 -0.412779 0.86740357 5.2021127
-0.076334 -0.3952693 0.86687702 5.2655525
-0.077778816 -0.37775496 0.86635035 5.2655525
-0.074245453 -0.35982752 0.86660057 5.3305163
-0.075579166 -0.34231991 0.86607426 5.3971472
-0.076857567 -0.32480556 0.86554778 5.1401401
-0.073154449 -0.3069303 0.86579973 5.2654686
-0.074320793 -0.28942642 0.86527365 5.3304749
-0.075433254 -0.27191624 0.86474746 5.1401005
-0.076489925 -0.25440532 0.86422127 5.3304749
-0.077492237 -0.2368885 0.86369497 5.3971057
-0.078438759 -0.21937129 0.86316866 5.4654241
-0.079330921 -0.20185122 0.86264235 5.2020297
-0.08016777 -0.18432572 0.86211592 5.2654686
-0.076016903 -0.16656467 0.86237162 5.3970661
-0.076743126 -0.14904976 0.86184561 5.0795918
-0.072479725 -0.13133061 0.86210275 4.797359
-0.058290482 -0.11326195 0.86392778 4.7445531
-0.044044018 -0.095281757 0.86575568 4.744483
-0.029740334 -0.077395551 0.86758631 4.2327762
-0.056112766 0.0090499222 0.86104578 3.9610281
-0.066161156 0.026371025 0.85894763 4.497467
-0.0070333481 0.044447884 0.86787581 4.3609958
0.062025547 0.062221348 0.87839156 4.1118927
0.51131582 0.081002995 0.94964659 3.9331067
0.53110695 0.09668234 0.95233327 3.9973068
0.54600763 0.11225212 0.95423388 4.169549
0.54614496 0.12780957 0.95376736 4.3548627
0.54633188 0.14336655 0.95330089 4.5050302
0.54656744 0.15892521 0.95283437 4.125659
0.037529469 0.40552244 0.86257821 4.232739
0.048454285 0.42209545 0.86366045 3.9976037
0.85193825 0.68402582 0.97973484 6.1895905
0.91259241 0.69105208 0.98899585 13.697601
0.87540913 0.71062577 0.98209709 24.029821
0.87742233 0.72514814 0.98166323 24.780754
0.8745923 0.74033862 0.98042017 24.393955
0.8669281 0.75624526 0.97836661 24.382933
0.85919714 0.77139705 0.97633547 24.372019
0.85176468 0.78822476 0.97425443 23.992107
0.83938646 0.80503517 0.9713847 23.271154
0.83918047 0.83506203 0.96969897 11.985573
0.9472785 -0.61799502 1.1943319 3.394578
0.95069647 -0.57361507 1.1942273 3.7187459
-0.14344406 -0.59127021 1.059792 4.2230072
-0.15537977 -0.57472044 1.0580614 7.5568008
-0.1137886 -0.49836674 1.0619266 5.8491049
-0.10076284 -0.47920337 1.0631988 7.1195278
-0.097550392 -0.46111742 1.063271 7.1176181
-0.10416031 -0.44401345 1.0621402 6.8697195
-0.10577583 -0.42641202 1.0616108 7.1195278
-0.10733652 -0.4088029 1.0610813 7.25137
-0.10884237 -0.39119163 1.0605516 7.5302691
-0.11029196 -0.37357575 1.060022 7.5302691
-0.11168623 -0.35595268 1.0594921 7.6779227
-0.11302519 -0.338328 1.0589623 7.5302691
-0.11430931 -0.32069659 1.0584323 7.6779227
-0.11058617 -0.30270869 1.0585079 7.5282493
-0.11175871 -0.28508776 1.0579784 7.6758633
-0.11287451 -0.2674605 1.0574486 7.6758633
-0.11393595 -0.24983257 1.056919 7.9891639
-0.11494112 -0.23219869 1.0563891 7.8293796
-0.11589146 -0.21456441 1.0558593 7.9891639
-0.116786 -0.19692725 1.0553296 7.9891639
-0.11762476 -0.17928466 1.0547996 7.8293796
-0.11840916 -0.16164222 1.0542697 7.5282493
-0.10922146 -0.1435644 1.0549593 7.6717534
-0.099975586 -0.12554941 1.0556507 7.6676559
-0.090672493 -0.1075946 1.0563442 7.5161934
-0.08131218 -0.089697637 1.0570393 5.7446232
-0.0090794563 0.016618811 1.063092 4.6320996
0.020521641 0.034278303 1.0662596 6.1665244
0.025368214 0.051529661 1.0663583 6.0686049
0.050116539 0.068862982 1.0689195 6.0608025
0.05011034 0.08598008 1.0684061 6.1570053
0.055119514 0.10309152 1.0685091 6.2547092
0.060181618 0.12017415 1.0686131 6.253108
0.06529808 0.13722268 1.068718 6.1522794
0.060544491 0.15433884 1.0675886 6.253108
0.070728302 0.17129216 1.0683126 6.2499142
0.095847607 0.18793967 1.0708948 5.4507365
0.18589401 0.21893549 1.0810583 3.7404106
0.05851078 0.27310297 1.0634124 5.3859992
0.064141273 0.2909624 1.0634935 6.6843557
0.069789886 0.30784443 1.0636039 5.6999063
0.070533752 0.32489598 1.0630932 5.1679153
0.066329956 0.34122071 1.0619879 4.3560972
0.057267666 0.35875443 1.0602303 3.9180944
0.053218365 0.37609634 1.0590944 3.9191003
0.044324398 0.39468768 1.0573052 4.1740913
0.020578861 0.41323513 1.0536686 4.983233
0.036510468 0.4295468 1.0550289 4.8548837
-0.036623955 0.45141777 1.0451303 4.1480026
-0.182868 -0.40859535 1.2533582 3.1321051
-0.17236948 -0.3538436 1.2530351 3.3047259
-0.17371988 -0.33602896 1.2524996 3.2446399
-0.14520597 -0.31601185 1.254544 3.2716994
-0.15140676 -0.29863295 1.2535806 3.2721477
-0.15755463 -0.28121907 1.2526162 3.3028986
-0.15867662 -0.2634486 1.2520822 3.1849384
-0.15477085 -0.24537385 1.2519801 3.1845009
-0.17753077 -0.19311193 1.2486458 3.1580608
0.43904686 -0.57189429 1.4916967 10.6804
0.43203354 -0.55663794 1.4909731 18.451241
0.43993044 -0.53946888 1.4909846 20.038673
0.43797207 -0.52357656 1.4905062 22.543507
0.44102144 -0.50708097 1.4902737 23.183504
0.43916464 -0.49119225 1.4897956 23.183504
0.44231987 -0.47473159 1.4895643 22.226833
0.44056511 -0.45884708 1.4890864 21.349457
0.43885946 -0.44295701 1.4886081 20.538717
0.43720388 -0.42705938 1.4881299 20.03159
0.44056606 -0.41065779 1.4879006 19.783815
0.44398308 -0.3942824 1.4876721 20.024538
0.44745207 -0.37793109 1.4874445 20.021023
0.44600105 -0.36206308 1.4869672 20.021023
0.44957399 -0.34574944 1.4867408 20.017519
0.44822407 -0.3298859 1.4862638 19.773403
0.45190048 -0.31361547 1.4860387 19.769947
0.45562983 -0.29736748 1.4858143 20.01053
0.45941162 -0.28114933 1.4855909 20.00705
0.45826435 -0.26531696 1.4851151 19.763062
0.46214867 -0.2491385 1.4848928 19.521564
0.46608448 -0.232988 1.4846716 19.75621
0.46508837 -0.21717685 1.4841964 19.518185
0.46414232 -0.20136505 1.4837214 19.75621
0.46324587 -0.18554798 1.4832461 19.518185
0.46738577 -0.16946381 1.4830271 18.758738
0.46160173 -0.15391052 1.4822958 19.518185
0.4658432 -0.13785022 1.4820775 18.758738
0.46514654 -0.1220412 1.4816027 18.758738
0.464499 -0.10622764 1.4811277 18.990326
0.46390247 -0.090414532 1.4806528 18.758738
0.46335411 -0.074599616 1.480178 19.227705
0.46285629 -0.058780663 1.4797031 18.990326
0.46739912 -0.042821221 1.479488 18.993338
0.46700096 -0.027015127 1.4790136 19.230753
0.46166086 -0.011320315 1.4782784 18.990326
0.46136141 0.0045012608 1.4778035 18.758738
0.46111202 0.0203261 1.4773285 19.227705
0.46091223 0.036151625 1.4768537 18.758738
0.4607625 0.051975306 1.4763789 18.758738
0.46066189 0.067799374 1.4759042 18.758738
0.4606123 0.083623692 1.4754295 18.758738
0.46061134 0.099450499 1.4749547 18.990326
0.46065998 0.11527722 1.47448 18.990326
0.45576572 0.13113238 1.4737403 20.000114
0.4559145 0.14697176 1.4732654 19.518185
0.45112085 0.16287303 1.4725244 19.759634
0.44637728 0.17880735 1.4717826 19.763062
0.44667625 0.19467838 1.4713068 19.292513
0.44201183 0.20977068 1.4705901 19.528349
0.44240808 0.22565526 1.470114 19.528349
0.4378624 0.24167606 1.4693698 19.531755
0.43336916 0.25772914 1.4686246 19.302607
0.43394756 0.27452445 1.4681213 19.302607
0.42955732 0.29061705 1.4673749 19.305984
0.43020773 0.3065404 1.4668978 19.078856
0.42592001 0.32267833 1.4661503 19.082207
0.42164087 0.33796176 1.4654282 18.863638
0.41745472 0.35415682 1.464679 18.650101
0.41336727 0.37126815 1.4639025 18.653395
0.40928698 0.38752371 1.4631515 18.873634
0.40027475 0.40410262 1.4621267 18.663324
0.39629889 0.42043045 1.4613737 18.666651
0.38739395 0.43711263 1.460346 18.461128
0.39348555 0.45282087 1.4601399 18.669983
0.40460539 0.46813667 1.4602097 20.816784
0.41577101 0.48338619 1.4602816 22.861021
0.41702652 0.49934953 1.4598038 22.543507
0.41833258 0.51530874 1.4593263 22.543507
0.41961288 0.53037757 1.4588754 20.54598
0.35286665 0.56862032 1.4540331 12.712696
0.34445143 0.58571774 1.4529933 7.2670565
-0.0085148811 -0.048740916 1.6424091 3.4231038
0.0010504723 -0.031205319 1.6420678 2.6786168
0.014564514 0.089717008 1.6387168 2.5102482
0 0 0 1 0 0 0 1 0 0 0 1 0 0 0 0 0 469 1 0 0
