ply
format ascii 1.0
comment PCL generated
element vertex 851
property float x
property float y
property float z
property float intensity
element camera 1
property float view_px
property float view_py
property float view_pz
property float x_axisx
property float x_axisy
property float x_axisz
property float y_axisx
property float y_axisy
property float y_axisz
property float z_axisx
property float z_axisy
property float z_axisz
property float focal
property float scalex
property float scaley
property float centerx
property float centery
property int viewportx
property int viewporty
property float k1
property float k2
end_header
0.99929714 0.98675251 0.78901088 16
0.76998234 0.96298933 0.80982959 53
0.79477596 0.92328644 0.99869043 35
0.62021828 0.93665409 0.82334358 32
0.71229744 0.89197922 1.0045954 38
0.30363846 0.92471194 0.85219765 32
0.78094769 0.85049057 0.99928093 78
0.058706284 0.91075087 0.87447739 46
0.56732368 0.83115959 1.2026942 19
-0.13079643 0.89186215 0.89164376 51
0.59172726 0.78991008 1.20112 25
0.051185608 0.8389082 1.0530164 5
-0.31649017 0.87223625 0.90844488 69
0.76325893 0.73646975 1.1912248 69
-0.18240356 0.82551908 1.0701411 11
-0.37116814 0.84329414 0.91319299 29
0.14945316 0.75851488 1.5865653 18
0.18388557 0.75515103 1.4045871 26
-0.36434937 0.80870724 1.0834272 46
-0.57657719 0.8294394 0.93182033 7
0.0066728592 0.73718953 1.5894947 52
0.017306328 0.73611355 1.4109199 36
-0.30894279 0.76913381 1.2514951 35
-0.47485161 0.78592634 1.091399 89
-0.53625488 0.7921412 0.92780268 54
0.291646 0.67204046 1.7665877 3
-0.056583405 0.70851421 1.5907502 71
-0.1135025 0.71447635 1.4158626 33
-0.39186573 0.74363256 1.2559929 88
-0.49414444 0.75434542 1.0925801 139
-0.51984787 0.7570374 0.92597646 23
-0.068044662 0.67640615 1.5909176 100
-0.1765995 0.68813992 1.4181795 35
-0.41113758 0.71349239 1.2568924 116
-0.49353313 0.72239876 1.0922848 93
-0.52319145 0.72560453 0.92597646 19
-0.055953979 0.63996863 1.5905828 41
-0.26775646 0.66361141 1.4215775 47
-0.44656563 0.68357158 1.2586915 89
-0.59808159 0.70048499 0.93255085 109
-0.17927361 0.61727524 1.5930939 49
-0.32342339 0.63390183 1.4235854 30
-0.50509167 0.65485525 1.0925801 8
-0.59407806 0.66511917 0.93182033 152
-0.23491287 0.58913851 1.5941819 101
-0.35119247 0.60296178 1.4245123 76
-0.44651031 0.6142931 1.2582419 10
-0.51293373 0.62218976 1.0928752 9
-0.60978889 0.63370275 0.93291605 254
-0.18532181 0.5484848 1.7680731 2
-0.23902416 0.55505896 1.5941819 159
-0.3631897 0.57025957 1.4248211 87
-0.44260406 0.57998109 1.257792 10
-0.50504971 0.58762598 1.0919895 9
-0.60188198 0.59948015 0.93182033 241
-0.21526527 0.51920319 1.593596 176
-0.3631897 0.53780961 1.4246666 104
-0.18105316 0.51489949 1.2427244 27
-0.52478886 0.55813742 1.0931705 9
-0.59784412 0.56732655 0.93108988 166
-0.17786026 0.47965598 1.7680213 4
-0.23945141 0.48762202 1.5940145 71
-0.36351585 0.50366807 1.4245123 94
-0.27255917 0.49190426 1.2476721 41
-0.50527 0.52200174 1.091399 9
-0.6020298 0.5345161 0.93108988 138
-0.022150993 0.42231727 1.5893273 47
-0.33248901 0.4636116 1.4231222 57
-0.28911209 0.45783997 1.2483468 44
-0.35957336 0.46721578 1.0801795 19
-0.63813591 0.504282 0.93401182 116
-0.20911121 0.41239643 1.5931776 61
-0.36079884 0.43311954 1.4240489 65
-0.30159569 0.42503166 1.2487965 47
-0.22577667 0.41467309 1.0698457 39
-0.23760319 0.38155842 1.5936798 90
-0.37337208 0.40058994 1.4243578 71
-0.29836941 0.3900764 1.2483468 46
-0.17124081 0.37225604 1.0654171 46
-0.61550331 0.4345305 0.93108988 16
-0.28969765 0.35601211 1.5946841 82
-0.38581276 0.3698101 1.4246666 98
-0.29897881 0.35734439 1.2481219 44
-0.24693871 0.34987354 1.0707315 40
-0.61597252 0.40285087 0.93072462 16
0.78789902 0.9957428 0.68074083 28
0.73047638 0.99975777 0.11401129 29
-0.36583996 0.3326025 1.5961907 90
-0.3906889 0.33625817 1.4246666 102
-0.29204655 0.32174587 1.2474473 32
-0.27951145 0.3199017 1.0727983 50
0.75540733 0.9602809 0.87450606 36
-0.62073326 0.37010288 0.93072462 38
0.54711723 0.97557449 0.70544851 44
0.48285103 0.98029351 0.5259732 50
0.48683929 0.9800005 0.33960402 42
0.49920559 0.97909236 0.14993608 20
-0.35132694 0.29431796 1.5957723 65
-0.37617302 0.29806614 1.4238944 104
-0.43951035 0.30762148 1.2555432 10
0.77893257 0.91882229 1.0633636 27
-0.2729845 0.2824986 1.0719125 47
0.72462463 0.92300987 0.8769002 52
-0.61403751 0.33395243 0.92962891 41
0.34982491 0.95191145 0.72562647 50
0.30179596 0.95561481 0.5476321 52
0.29038429 0.95649529 0.3665669 49
0.30718708 0.95519924 0.179667 19
-0.32485008 0.25576305 1.5951027 80
-0.35364914 0.26021075 1.4228132 91
-0.46433735 0.2773056 1.2566676 7
0.72027588 0.88569188 1.0671705 35
-0.3215332 0.25525093 1.0751603 16
0.68194962 0.88878155 0.88032031 36
-0.6229744 0.3018055 0.92999417 40
0.16057968 0.93081617 0.74498093 53
0.12480354 0.93370056 0.56880975 56
0.10194206 0.93554401 0.39242923 45
0.1231575 0.93383336 0.20815909 18
-0.34170818 0.22555733 1.5953537 91
-0.36259079 0.22885323 1.4229677 88
-0.43771553 0.24071074 1.2548685 7
0.77302647 0.8454721 1.0633636 79
-0.51567745 0.25301576 1.0893323 7
0.73860455 0.84836197 0.87519008 57
-0.6278286 0.27071786 0.92999417 40
-0.0047492981 0.9107759 0.76186442 55
-0.032281876 0.91308713 0.5875808 57
-0.094270706 0.91829157 0.41939211 26
-0.084375381 0.91746116 0.24036753 19
-0.35498428 0.1931293 1.5955211 86
-0.35612106 0.19331288 1.4225043 91
0.49054527 0.8323009 1.2687535 10
-0.46669769 0.21116185 1.2562178 9
-0.5288372 0.2211926 1.0899228 8
0.13589287 0.86332536 0.92683446 26
-0.62911701 0.23737955 0.92962891 40
-0.16232109 0.88941288 0.77792454 56
-0.18954086 0.89179397 0.60635185 58
-0.35378265 0.90616226 0.45515907 20
-0.15820312 0.88905311 0.25151658 37
-0.2521286 0.89726949 0.12160134 59
-0.16232872 0.88941336 -0.098096848 56
-0.34497261 0.15518188 1.5951864 73
-0.34611702 0.15537095 1.4218864 92
0.39560795 0.80219984 1.2733889 20
-0.44876003 0.17232561 1.2548685 9
-0.53056812 0.18583894 1.0896275 7
-0.13730907 0.8507874 0.95009148 47
-0.64258289 0.20434141 0.93035936 39
-0.29233456 0.86492157 0.79110193 69
-0.33511639 0.86882257 0.62367904 60
-0.48714542 0.88268328 0.47331774 22
-0.2440691 0.86052084 0.26452386 34
-0.38095474 0.87300134 0.14324069 72
-0.47458839 0.88153839 -0.038450956 65
-0.34665489 0.12082362 1.5951027 74
-0.33991814 0.11968708 1.4214231 88
0.43996239 0.76139879 1.2709703 39
-0.43463516 0.13567209 1.2537441 10
-0.21853828 0.82375455 1.1305282 13
-0.433815 0.13553357 1.081951 7
-0.30714607 0.83214569 0.96445614 53
-0.62839794 0.16837287 0.9285332 37
-0.43411922 0.84416866 0.80551475 82
-0.46080208 0.84669542 0.63859963 73
-0.57306099 0.85732579 0.48487329 24
-0.4636116 0.8469615 0.29859042 38
-0.53714466 0.85392475 0.1696136 88
-0.6184597 0.86162472 -0.011270642 52
-0.24599457 0.068797112 1.5928427 72
-0.34173012 0.085297823 1.4212686 86
-0.1161871 0.77924037 1.2989838 18
-0.45213509 0.10432744 1.2544187 8
-0.38069725 0.80521965 1.1414051 50
-0.18005466 0.057431459 1.0624645 41
-0.43336487 0.81039214 0.97505862 27
-0.60649776 0.13093328 0.92597646 36
-0.49673462 0.81661606 0.8116917 119
-0.51143646 0.81806064 0.64437532 116
-0.61960888 0.82868505 0.49092615 35
-0.67132854 0.83376431 0.33079898 28
-0.64234257 0.8309176 0.18719554 38
-0.64507294 0.83118582 -0.0067405701 34
0.12657356 0.71969485 1.647028 2
-0.24010658 0.032680035 1.5925916 56
0.33308601 0.6986835 1.4598019 43
-0.34759903 0.051593781 1.4212686 96
-0.31835651 0.76496291 1.3090606 46
-0.42647266 0.065472603 1.2526196 8
-0.44757748 0.7781105 1.145756 102
-0.11923504 0.01141119 1.0574453 51
-0.5397892 0.78749251 0.98395103 15
-0.60828209 0.097462893 0.92561126 36
-0.5277586 0.78626847 0.81457424 76
-0.55030251 0.7885623 0.64870715 131
-0.63076401 0.7967484 0.49202669 107
-0.69424152 0.80320692 0.33389592 40
-0.69659615 0.80344653 0.19598651 42
-0.64833736 0.79853654 -0.0067405701 34
0.071392059 0.69155622 1.6478094 46
-0.26947308 0.0045604706 1.5930939 48
0.17050457 0.68114018 1.4650397 48
-0.33361244 0.016065359 1.4204963 87
-0.38921833 0.73996377 1.3124866 95
-0.13335991 -0.019855261 1.235528 39
-0.46672821 0.74810958 1.1468437 121
-0.12505436 -0.021345615 1.0574453 48
-0.55492401 0.7573781 0.98497707 37
-0.59421158 0.062811375 0.92378503 35
-0.55474854 0.75735998 0.81704503 23
-0.56144142 0.75806332 0.64966977 135
-0.62215614 0.76444387 0.49037588 128
-0.71315289 0.77400732 0.33637345 58
-0.71154785 0.77383876 0.19801509 46
-0.65544987 0.76794243 -0.0059854984 36
0.047754288 0.65856647 1.6481099 64
-0.25202179 -0.033714294 1.5925916 78
-0.016114235 0.66550374 1.4710634 46
-0.33579254 -0.018385649 1.4203418 85
-0.40868855 0.70814681 1.3132927 115
-0.096385002 -0.062192917 1.2330543 51
-0.4464798 0.7122519 1.1452121 51
0.99879646 -0.26259279 0.97241312 24
-0.55844593 0.72441411 0.98497707 42
-0.58448505 0.027121067 0.92232406 32
-0.54640388 0.72310638 0.81580967 6
-0.5925951 0.7281239 0.65303886 194
-0.64928627 0.73428202 0.4936775 131
-0.724473 0.74244905 0.33761227 149
-0.7071743 0.74056983 0.19666266 52
0.031762123 0.62308598 1.6482902 68
-0.24683189 -0.071632862 1.5923406 80
-0.11550522 0.63962913 1.474206 49
-0.33448124 -0.055262327 1.420033 85
-0.10701942 -0.097746134 1.2332792 53
-0.46621037 0.67902589 1.1462998 8
-0.43599987 -0.036301613 1.0798843 7
-0.55830765 0.68937135 0.98463506 46
-0.58694744 -0.0081086159 0.9219588 31
-0.58977127 0.69290614 0.81992757 24
-0.60035038 0.69409442 0.65352023 252
-0.65700912 0.700459 0.49422777 122
-0.70466614 0.70581245 0.33389592 147
-0.73052502 0.70871735 0.2000438 49
0.0635252 0.58393216 1.6477492 70
-0.11182117 -0.13259125 1.5893273 80
-0.2266655 0.61755633 1.4777416 44
-0.32906246 -0.091231108 1.4195695 93
-0.42432594 0.64045978 1.3136959 9
-0.10960579 -0.13301253 1.2330543 54
-0.49775696 0.64896822 1.1482031 8
-0.41878033 -0.074150085 1.0781128 6
-0.57790375 0.65825486 0.9860031 46
-0.55792427 -0.047658205 0.91867167 30
-0.58956623 0.65960622 0.81951582 40
-0.5962038 0.66037536 0.65255761 224
-0.63711548 0.66511559 0.49092615 125
-0.71621895 0.67428112 0.33513463 154
-0.71072006 0.6736443 0.19598651 43
0.40092754 0.50802803 1.64258 24
-0.14200878 -0.16252637 1.5898296 70
-0.26640606 0.58771396 1.4789201 38
-0.31592846 -0.12878442 1.4187973 83
-0.42032433 0.60609341 1.3132927 8
-0.096636772 -0.17132854 1.2319298 52
-0.4818449 0.61343932 1.1468437 8
-0.28422737 -0.13493443 1.0674837 9
-0.58177185 0.62537169 0.9860031 42
-0.59162998 -0.075295687 0.92122835 30
-0.60528183 0.62817883 0.82075119 170
-0.58823681 0.62614393 0.65111363 152
-0.64095974 0.63243937 0.49092615 119
-0.71610641 0.64141273 0.33451533 150
-0.69495964 0.63888741 0.19260538 51
0.26178074 0.49011469 1.6446236 41
-0.1680212 -0.19133306 1.5902481 96
-0.29808998 0.55885243 1.4798367 32
-0.30260563 -0.16475916 1.418025 88
-0.43209934 0.5753057 1.3136959 8
-0.079554558 -0.20880055 1.2305806 42
-0.3153429 0.56097078 1.1351509 33
-0.14964581 -0.19496107 1.0568547 46
-0.59742069 0.59560299 0.98702919 60
-0.55865574 -0.11420202 0.9175759 29
-0.61300278 0.59751582 0.821163 90
-0.58413124 0.59397101 0.65015101 136
-0.63291931 0.59996104 0.48927534 119
-0.70806694 0.60918713 0.3326571 161
-0.71434784 0.60995841 0.19531024 54
0.18986511 0.46282268 1.6456455 44
-0.14349365 -0.2319479 1.5895784 62
-0.29437447 0.52399158 1.4795748 25
-0.28191757 -0.20411348 1.4169438 74
-0.40058804 0.53740835 1.311882 7
-0.29579735 0.52417111 1.1335194 48
-0.08218956 -0.24427509 1.051245 47
-0.60150814 0.56278849 0.98702919 26
-0.56522083 -0.14714742 0.9175759 16
-0.58550262 0.5607667 0.81786859 51
-0.58822346 0.56111026 0.65015101 132
-0.62519932 0.56578064 0.48762453 118
-0.7081852 0.57626343 0.33203769 253
-0.73402882 0.57952857 0.19801509 57
0.010567665 0.44817829 1.6482902 34
-0.095974922 -0.2792995 1.5884067 43
-0.013490677 0.4513061 1.4701467 14
-0.2813158 -0.24132347 1.4166348 74
-0.38925076 0.50017214 1.3110759 10
-0.36769295 -0.22362566 1.2463228 7
-0.33201408 0.49272871 1.1356947 41
-0.097380638 -0.27901149 1.0518355 24
-0.5624485 0.5226953 0.98326701 35
-0.54882431 -0.18651223 0.91538447 9
-0.60965347 0.52883434 0.81992757 44
-0.59264565 0.52662277 0.65015101 157
-0.62174511 0.53040648 0.48652411 122
-0.69687462 0.54017735 0.32956016 254
-0.73447227 0.54506636 0.19733894 56
0.045605659 0.40794826 1.6476891 28
0.05739212 -0.34733105 1.584975 41
0.096832275 0.40110445 1.4663492 52
-0.28441143 -0.27605271 1.4164804 126
-0.31843567 0.45658278 1.3072467 14
-0.31208706 -0.27028131 1.2427244 10
-0.30877209 0.45529199 1.1337914 40
-0.46769714 -0.23783112 1.0792937 7
-0.5825901 0.49187255 0.98463506 25
-0.54394245 -0.22193122 0.91428876 10
-0.61791706 0.49659228 0.82033938 36
-0.57729244 0.49116468 0.64774454 150
-0.62213135 0.49715519 0.48597383 121
-0.69331932 0.50666547 0.32832134 254
-0.75436401 0.51482105 0.2000438 55
-0.026501656 0.38212895 1.648711 27
0.34159088 0.33164501 1.4580996 77
-0.27981377 -0.31244349 1.4160171 129
-0.30322075 0.42008114 1.306239 19
-0.3035717 -0.3074019 1.2418249 12
-0.30939674 0.42092824 1.1335194 41
-0.44347668 -0.27771711 1.0769317 7
-0.57914257 0.45792389 0.98395103 22
-0.52360916 -0.26071405 0.91173208 46
-0.62234974 0.46385002 0.82033938 21
-0.58961201 0.45935965 0.64870715 148
-0.61478615 0.46281219 0.48432302 123
-0.713377 0.47633457 0.33079898 254
-0.72748566 0.47826934 0.19463396 51
-0.13827229 0.36237001 1.6503339 37
0.56223202 0.26380301 1.4506357 60
-0.27535152 -0.34888983 1.4155537 137
-0.292099 0.38401484 1.3054329 18
-0.34594631 -0.33365345 1.243849 10
-0.3140955 0.38710976 1.1335194 41
-0.42721653 -0.31611323 1.0751603 7
-0.5679245 0.42282557 0.98258299 22
-0.50342941 -0.29966402 0.90917534 113
-0.61113644 0.4289062 0.81869221 18
-0.60203934 0.42762613 0.64966977 176
-0.61541367 0.42950749 0.48377275 121
-0.70613956 0.44227386 0.32894075 92
-0.69684601 0.44096613 0.18854797 43
-0.15480423 0.33138537 1.6505141 33
0.53746033 0.23163581 1.4512905 52
-0.2042799 -0.39825177 1.4124645 36
-0.38367176 0.36436343 1.3098667 9
-0.33730507 -0.36907887 1.2429494 9
-0.28706837 0.35044336 1.1313441 38
-0.39125919 -0.35724592 1.0719125 7
0.71110725 0.99359798 0.94209421 32
-0.57632256 0.39212298 0.982925 22
-0.45969772 -0.34223723 0.90442723 80
0.79768372 0.98748398 0.74360025 25
-0.59587765 0.39494061 0.81663322 21
-0.59861565 0.3953352 0.64870715 162
-0.61200047 0.39726377 0.48267221 118
-0.70270538 0.41033387 0.32770193 81
-0.69343472 0.40899754 0.18719554 43
-0.16377163 0.29761195 1.6505742 31
0.52023125 0.19661427 1.4516833 43
-0.20793629 -0.43330026 1.41231 26
-0.42808819 0.33664012 1.311882 7
-0.30578136 -0.411484 1.2407005 11
-0.28016853 0.31479859 1.1305282 36
-0.39088631 -0.39250851 1.071322 7
0.80781269 0.94884396 0.93412995 42
-0.57717705 0.3586545 0.98258299 23
-0.44373226 -0.38072538 0.90223575 132
0.46939945 0.97393012 0.77545929 38
-0.58098412 0.35921597 0.81457424 50
-0.57983017 0.35904598 0.64581931 158
-0.60894108 0.36334419 0.48157167 123
-0.69961929 0.37673378 0.32646322 80
-0.69037151 0.37536812 0.18584299 41
-0.14147949 0.25737858 1.6501535 30
-0.046831131 0.24304891 1.4702777 26
0.58179188 0.14787269 1.2600875 10
-0.30208302 -0.449651 1.2400258 91
-0.32100677 0.28455973 1.1329756 13
-0.36768055 -0.43477273 1.06896 9
0.72529793 0.91542435 0.94050133 41
-0.57445908 0.32293367 0.98189896 23
-0.45937538 -0.41397476 0.90296626 89
0.23230934 0.9537847 0.79838228 37
-0.57434368 0.32291651 0.81333888 72
-0.59284496 0.32571745 0.64678192 130
-0.61800385 0.32952642 0.48212194 122
-0.68908501 0.34028864 0.32398558 81
-0.67988014 0.33889508 0.18313813 39
-0.15860748 0.22481251 1.6503339 24
-0.020547867 0.20341659 1.4692301 26
-0.42660332 0.26634574 1.3112774 7
-0.29036427 -0.48797464 1.2389014 72
0.71583462 0.87851954 1.1311262 35
-0.48787117 0.27584076 1.1441244 7
-0.37147903 -0.46927834 1.0686648 59
0.7580862 0.87508416 0.93763423 41
-0.57555962 0.28943014 0.98155689 22
-0.43205357 -0.45531678 0.89967906 79
0.011229515 0.93582296 0.8197512 59
-0.5715189 0.28880453 0.81251526 82
-0.57825375 0.28984785 0.64437532 143
-0.61127281 0.29496503 0.48047113 128
-0.70187378 0.30900621 0.3252244 78
-0.67707062 0.30516243 0.1817857 39
-0.20744324 0.19735789 1.650995 26
-0.022057533 0.1679647 1.4690992 27
-0.4239502 0.23168564 1.3108743 7
0.70079422 0.84213233 1.1318712 24
-0.47731018 0.24014616 1.1430367 7
-0.36374855 -0.50651336 1.0674837 89
0.17093277 0.88708663 0.98446381 78
-0.57284355 0.25529385 0.98087287 22
-0.40102577 -0.49778342 0.89602667 38
-0.059110641 0.90660334 0.82635611 80
-0.56488895 0.25403214 0.81127989 91
-0.57556343 0.25572491 0.64341271 137
-0.6085844 0.26096034 0.47937059 124
-0.70305824 0.27593923 0.32460499 75
-0.67048931 0.27077556 0.179757 39
-0.18106079 0.15977764 1.6505141 31
-0.17337608 0.1585331 1.4739442 51
-0.41720676 0.19802284 1.3102697 8
0.70170116 0.80630088 1.1316228 64
-0.50206566 0.211766 1.1443963 7
0.052830696 0.86351943 0.99370235 116
-0.57785225 0.22404003 0.98087287 23
-0.38915634 -0.53420877 0.89420044 25
-0.24835014 0.89007854 0.84461683 59
-0.55811787 0.22084379 0.81004453 95
-0.59233093 0.22638488 0.64485669 137
-0.61357307 0.22982478 0.47937059 127
-0.70019531 0.24385381 0.32336617 73
-0.67155361 0.23921514 0.17908072 38
-0.17117214 0.12118673 1.6502737 31
-0.21082687 0.1277585 1.4749917 86
0.40981007 0.79357696 1.3348088 10
-0.41901779 0.1622591 1.3100682 8
-0.49595547 0.17500925 1.1435806 7
-0.06166172 0.83689475 1.0026222 39
-0.57957649 0.18886662 0.98053086 21
-0.40617847 0.86854792 0.85976928 62
-0.56378555 0.18624973 0.81004453 59
-0.59405994 0.19126678 0.64437532 131
-0.61529827 0.19478679 0.47882032 119
-0.69018364 0.20719624 0.32088864 68
-0.65770721 0.20181417 0.17569959 37
-0.15325737 0.082881689 1.6499131 27
0.44082642 0.75396228 1.5187614 7
-0.078589439 0.070240259 1.4704086 22
0.23535538 0.7735641 1.3424554 10
-0.41674042 0.127491 1.3096652 9
-0.11209679 0.80671048 1.182043 10
-0.44642544 0.13251758 1.1397736 7
-0.32291222 0.8268218 1.0233293 48
-0.57722473 0.15466213 0.97984684 20
-0.45687103 0.83960104 0.86443156 24
-0.5536108 0.15066433 0.80839735 67
-0.58389854 0.155792 0.64245009 134
-0.59734726 0.1580689 0.47551882 122
-0.68393707 0.17272949 0.3190304 60
-0.65928173 0.16855502 0.17502344 36
-0.15489864 0.049556971 1.649853 29
0.33400726 0.72956061 1.5215491 101
-0.048758507 0.031224251 1.4692301 22
0.021295547 0.76043916 1.3518801 13
-0.41430092 0.09436059 1.309262 8
-0.30200863 0.79236412 1.1937165 27
-0.15690231 0.049902678 1.1193795 38
-0.44506645 0.80649042 1.0328863 62
-0.56293011 0.1200316 0.97813678 20
-0.53521729 0.81539249 0.87181354 4
-0.53936195 0.11596107 0.80633837 86
-0.58923626 0.12457561 0.64245009 132
-0.60658169 0.12757134 0.47606909 128
-0.66974735 0.13848162 0.31593347 64
-0.65680695 0.1362462 0.17367089 36
0.31377029 0.69519305 1.7053614 9
-0.14907837 0.01311779 1.6496726 30
0.354249 0.69105339 1.5209057 89
-0.058754921 -0.002808094 1.4693611 17
-0.21278763 0.74904466 1.3621939 25
-0.40046692 0.057442188 1.3082544 7
-0.40072823 0.76826596 1.1996776 81
-0.10001469 0.0044672489 1.1150287 51
-0.49601746 0.77801108 1.0367091 67
-0.55297756 0.084332228 0.97676873 18
-0.54249763 0.78276515 0.8722021 22
-0.54512405 0.082947254 0.80633837 101
-0.58323574 0.08966732 0.64100611 139
-0.5849905 0.089976311 0.4722172 125
-0.6754303 0.10592246 0.31593347 61
-0.63920212 0.09953475 0.1696136 36
0.20660686 0.67013884 1.7063107 2
-0.14732742 -0.022675276 1.6495525 27
0.072143555 0.68436527 1.5284111 33
-0.06099987 -0.038207054 1.4692301 15
-0.31966209 0.72581816 1.3668175 70
-0.13514042 -0.024867535 1.2943485 23
-0.44391346 0.73896432 1.2021613 131
-0.12973499 -0.025840282 1.1166604 56
-0.51532936 0.74652004 1.0379834 72
-0.55884933 0.051364899 0.97676873 18
-0.54708576 0.049248934 0.80592656 106
-0.58908844 0.056805849 0.64100611 134
-0.5830431 0.05571866 0.47111666 127
-0.67344666 0.071983576 0.31469464 58
-0.64501953 0.066868544 0.1696136 35
0.0753479 0.64667225 1.7074791 1
-0.14995766 -0.059497356 1.6494924 28
-0.066972733 0.66225719 1.5320567 39
-0.0086393356 -0.085458279 1.4672658 23
-0.37909222 0.69643688 1.3693069 110
-0.12599564 -0.063899279 1.2935424 29
-0.44768333 0.70394826 1.2021613 112
-0.10098362 -0.06849432 1.114213 47
-0.45961666 0.70525503 1.0332048 22
-0.55338097 0.01461339 0.97574264 19
-0.53383064 0.71338201 0.87064797 20
-0.54555607 0.013175726 0.80510294 106
-0.56411362 0.016584635 0.63715565 138
-0.58541965 0.020498991 0.47056639 126
-0.664114 0.03495574 0.31221712 57
-0.67063999 0.036154032 0.17299473 34
-0.14060879 -0.096815586 1.6492519 24
-0.19002724 0.64106512 1.5352733 79
-0.054401398 -0.11296296 1.4685754 24
-0.38282871 0.66285968 1.3693069 47
-0.11275387 -0.10203314 1.2925346 26
-0.091701508 -0.10597634 1.1131253 46
-0.48709393 0.67464662 1.0351162 26
-0.55166054 -0.019819021 0.97505862 20
-0.56124306 0.68302846 0.87297916 75
-0.53603268 -0.022746563 0.80345577 112
-0.5546093 -0.019266844 0.63523042 134
-0.58761978 -0.01308322 0.47001624 122
-0.65850449 0.00019407272 0.310359 55
-0.63405418 -0.0043857098 0.16555619 33
0.045719147 -0.16622114 1.6463066 23
-0.20567417 0.60992694 1.5355949 77
0.084666252 -0.1736505 1.4637303 57
-0.36664009 0.62866378 1.3684179 28
-0.11894989 -0.13481045 1.2925346 24
-0.4589901 0.6394136 1.2024097 8
-0.097911835 -0.13882351 1.1131253 45
-0.47883034 0.64172292 1.0341606 24
-0.53800774 -0.054874897 0.97334856 20
-0.60437679 0.65633678 0.87686437 254
-0.52633095 -0.057102442 0.8018086 108
-0.54882717 -0.052811146 0.63378656 133
-0.57405853 -0.047998667 0.46726489 126
-0.66823959 -0.030033827 0.31097829 51
-0.61668777 -0.039866924 0.16149879 33
0.14890003 -0.22264051 1.6446236 78
-0.20971298 0.57574511 1.5355949 108
0.070041656 -0.20731282 1.4639922 30
-0.42219162 0.60122991 1.3707296 9
-0.16480446 -0.16166568 1.2945499 16
-0.44707012 0.60421371 1.2014163 10
-0.096729279 -0.17489743 1.1125815 44
-0.51046944 0.61181808 1.0363905 14
-0.53654003 -0.089411736 0.97266454 18
-0.58058167 0.62022734 0.87414473 176
-0.53660202 -0.089399576 0.8022204 114
-0.54348183 -0.088062286 0.63234258 140
-0.5765028 -0.08164382 0.46671462 122
-0.65511417 -0.066364288 0.30788136 46
-0.61912155 -0.073360443 0.16082263 32
0.12590885 -0.25671554 1.6448641 83
-0.23392487 0.54232335 1.5361311 89
-0.0038671494 -0.23099709 1.4662182 39
-0.37094498 0.55926704 1.36824 8
-0.34821796 -0.16275477 1.3036191 9
-0.21360779 0.5398109 1.1865137 28
-0.096021652 -0.21273375 1.1120377 44
-0.526577 0.57851291 1.0373462 10
-0.52770901 -0.12718344 0.97129643 17
-0.57688332 0.58473372 0.87336767 99
-0.51998997 -0.12871337 0.79974961 107
-0.54249382 -0.12425375 0.63137996 140
-0.56384754 -0.12002206 0.46396327 122
-0.65408134 -0.10213995 0.30664253 43
-0.62200069 -0.10849738 0.16014636 31
-0.16367626 0.49876094 1.7094872 7
0.11884117 -0.29204917 1.6448641 85
-0.24216652 0.50874519 1.5362383 54
-0.1009779 -0.24768758 1.4692301 38
-0.39101696 0.52767992 1.3689513 8
-0.30013084 -0.20749736 1.3007976 12
-0.28125858 0.51371789 1.1904876 46
-0.091197968 -0.24966145 1.1112218 20
-0.5386343 0.54645777 1.0379834 10
-0.53822613 -0.15944839 0.9716385 14
-0.58100891 0.5518477 0.87336767 96
-0.49540424 -0.16809011 0.79645526 56
-0.54520035 -0.15804076 0.63089871 133
-0.56266594 -0.15451622 0.46286273 120
-0.63736153 -0.13944197 0.30292618 40
-0.60535908 -0.14590049 0.15608895 29
0.1273222 -0.33057785 1.6446236 53
-0.19898129 0.4684701 1.5349517 56
-0.19024849 -0.26533532 1.47198 53
-0.39138031 0.49362731 1.3687735 7
-0.35398102 -0.2316978 1.303216 9
-0.28167343 0.47928286 1.1902393 57
-0.40705872 -0.22079325 1.1327037 6
-0.53893948 0.51292133 1.0376649 10
-0.52542973 -0.19647503 0.96992838 13
-0.60103989 0.52104163 0.87492174 96
-0.50995255 -0.19965434 0.79727888 19
-0.53246975 -0.19502831 0.62849212 138
-0.56548977 -0.18824506 0.46231246 117
-0.56659603 -0.18801737 0.29053831 67
-0.59658623 -0.18185639 0.15338409 28
-0.18743229 0.43384886 1.5345228 78
-0.18133163 -0.30112481 1.4714562 53
-0.38767815 0.4607079 1.3684179 7
-0.34496403 -0.26694226 1.3024099 7
-0.28594112 0.44706202 1.1902393 61
-0.39411354 -0.25667453 1.1313441 6
-0.55099773 0.48261356 1.0383019 10
-0.50852966 -0.2327733 0.96787632 12
-0.6327877 0.49358416 0.87764144 64
-0.50089169 -0.23436856 0.79563165 23
-0.52731133 -0.22884941 0.62704813 164
-0.56033421 -0.22195101 0.46066177 123
-0.56147099 -0.22171378 0.2886802 96
-0.59532642 -0.21464133 0.15203166 27
-0.19604778 0.40014982 1.5346301 78
-0.20028305 -0.33289242 1.471849 52
-0.39223671 0.42716217 1.3684179 7
-0.34034061 -0.30312419 1.3018053 7
-0.27868271 0.41152787 1.1894941 66
-0.34652805 -0.30180883 1.1275371 6
-0.52782822 0.44583106 1.036072 10
-0.48432255 -0.27252102 0.96514016 11
-0.61750889 0.45817828 0.8756988 53
-0.47674084 -0.27413249 0.7923373 20
-0.50708675 -0.26768255 0.62367904 150
-0.55952549 -0.25653696 0.45956123 122
-0.58773613 -0.25054121 0.29177713 204
-0.60609818 -0.2466383 0.15270782 27
-0.19314194 0.36310792 1.5344155 75
-0.2353344 -0.36287808 1.4727657 25
-0.39319324 0.39139938 1.36824 7
-0.30497932 -0.34780884 1.2995884 7
-0.29156017 0.37702632 1.189991 68
-0.36971378 -0.33380175 1.1286249 7
-0.54056835 0.4122417 1.0367091 10
-0.48790455 -0.30822754 0.96479815 19
-0.6144228 0.42268586 0.87492174 45
-0.47255707 -0.31154799 0.79110193 22
-0.50678349 -0.304142 0.62271643 154
-0.55532646 -0.29363871 0.45791042 123
-0.61444473 -0.28084636 0.29487407 254
-0.62889194 -0.27772045 0.15541279 27
-0.19012928 0.32773662 1.5342011 68
-0.4098587 0.35959387 1.3687735 7
-0.28505039 -0.38764763 1.2981777 10
-0.2766571 0.34028172 1.1887491 70
-0.38484192 -0.36568975 1.1291687 7
-0.39929295 0.35806131 1.0249221 14
-0.50293159 -0.33970547 0.96548218 18
-0.61911392 0.38993216 0.87492174 40
-0.46038342 -0.34906769 0.78904295 25
-0.48686504 -0.34324074 0.61934721 131
-0.55090904 -0.32914853 0.45625961 121
-0.61773205 -0.3144455 0.29425478 254
-0.60137367 -0.31804442 0.14932668 27
-0.19515419 0.29350257 1.5342011 68
-0.39896011 0.3237772 1.3680623 7
-0.29647064 -0.42067409 1.2983792 89
-0.26584148 0.304003 1.1877556 58
-0.34555244 -0.40969419 1.1259056 7
-0.32138538 0.31225348 1.0182321 37
-0.48305988 -0.37893438 0.9630881 28
-0.61604309 0.35602522 0.87414473 40
-0.44835567 -0.38669753 0.78698397 32
-0.47485352 -0.38076973 0.61694074 137
-0.53502464 -0.36730957 0.45295811 131
-0.6095686 -0.35063434 0.29177713 254
-0.58556652 -0.35600376 0.14526939 30
-0.20794296 0.26219702 1.5344155 68
-0.39584064 0.29074597 1.3677065 7
-0.28424263 -0.45726347 1.2973715 64
-0.35276604 -0.44169593 1.1259056 56
-0.26313305 0.2705822 1.013135 42
-0.47073936 -0.41489458 0.96137798 24
-0.60103703 0.32192326 0.8722021 36
-0.44385147 -0.42100263 0.7857486 43
-0.47035408 -0.41498232 0.61549675 134
-0.53050804 -0.40131593 0.4513073 127
-0.58190441 -0.38963962 0.28620255 207
-0.5695343 -0.39245033 0.14121199 30
-0.37014389 -0.43774796 -0.098096848 63
-0.35938644 0.25075912 1.5383828 117
-0.39309502 0.25600123 1.3673508 8
-0.47709656 0.26906466 1.2004228 7
-0.32936764 -0.48253942 1.1237302 89
-0.34321594 0.24824452 1.0191878 14
-0.4589386 -0.45262742 0.95966792 20
-0.62574768 0.29218173 0.87414473 36
-0.42822838 -0.4597168 0.78327787 57
-0.45862389 -0.4526999 0.61309016 135
-0.51877308 -0.43881392 0.44855595 126
-0.59713078 -0.42072439 0.28744137 112
-0.56554699 -0.42801595 0.13918328 30
-0.40845966 -0.46428061 -0.092056751 43
-0.34125328 0.21166134 1.5377394 107
-0.38679695 0.21891475 1.3668175 9
-0.47470474 0.23291588 1.1999259 7
-0.52991772 0.24170971 1.0338421 26
-0.41663647 -0.4994216 0.95522171 20
-0.62329197 0.25658131 0.87336767 26
-0.40153027 -0.50296688 0.77957165 80
-0.43969917 -0.4940083 0.60972106 125
-0.51143074 -0.47717094 0.44635487 121
-0.58976078 -0.45878553 0.28496385 138
-0.5697546 -0.46348166 0.13850701 27
-0.43193531 -0.49583077 -0.089036703 35
-0.36641502 0.18116903 1.5382755 117
-0.40008926 0.18665266 1.3671731 10
-0.48399734 0.20031714 1.2001743 9
-0.5273695 0.20738006 1.0332048 34
-0.40128613 -0.5384059 0.95316964 31
-0.58926964 0.21746063 0.8694824 24
-0.38236141 -0.54291725 0.77668905 106
-0.42441559 -0.53289151 0.60683322 92
-0.50770092 -0.51303554 0.44470417 119
-0.58215332 -0.49528551 0.2824862 132
-0.55452919 -0.50187111 0.13444972 29
-0.43983269 -0.52921581 -0.089036703 35
-0.35983658 0.14726329 1.5379539 81
-0.38167381 0.15089393 1.366106 9
-0.46949863 0.1654954 1.1989324 8
-0.50893688 0.17205191 1.0312934 28
-0.59047508 0.18560791 0.86909389 23
-0.49215221 -0.55009055 0.44140255 78
-0.55892277 -0.53393745 0.27753115 130
-0.54288864 -0.53781676 0.13106859 29
-0.36154842 0.11295485 1.5378466 88
-0.37155533 0.11465478 1.3653948 10
-0.47115135 0.13157058 1.1986841 8
-0.51057053 0.13826609 1.0309749 24
-0.56851864 0.14810824 0.86637419 24
-0.50793362 -0.58137584 0.44250309 16
-0.60149193 -0.5583961 0.28310561 31
-0.53178978 -0.57551646 0.12768745 28
-0.28458595 0.064970732 1.5355949 59
-0.36944771 0.079689264 1.3650391 9
-0.29591465 0.066935539 1.1872588 10
-0.49268341 0.10106277 1.0290635 20
-0.57809067 0.11587596 0.86676276 25
-0.52908516 -0.61126518 0.27009833 19
-0.16090012 0.0063478947 1.5320567 60
-0.37170029 0.043704987 1.3648614 9
-0.15276909 0.0049068928 1.1778206 47
-0.49486542 0.065532207 1.0287449 25
-0.57630348 0.079964399 0.86598569 25
-0.12376404 -0.035812616 1.5308774 57
-0.36591911 0.007973671 1.3643279 8
-0.10392189 -0.039400578 1.1743433 54
-0.50472736 0.03307271 1.0290635 24
-0.56260204 0.043537855 0.86404306 25
-0.16513157 -0.062033176 1.5318422 70
-0.36388779 -0.025413513 1.3639722 8
-0.090277672 -0.075824976 1.1731014 58
-0.49086666 -0.0020179749 1.0274706 25
-0.56439877 0.011529684 0.86365455 25
-0.13221741 -0.10373545 1.5307701 90
-0.35050678 -0.062728167 1.3630831 9
-0.10063648 -0.10966802 1.1733499 58
-0.14827061 -0.10071969 0.99911797 20
-0.57052422 -0.021396399 0.86365455 25
-0.13515186 -0.14064288 1.5306628 82
-0.3611412 -0.097330809 1.3632609 8
-0.095756531 -0.14819312 1.1726047 57
-0.15903568 -0.13606572 0.99943656 40
-0.55752945 -0.059691906 0.86171192 28
-0.14181232 -0.17506599 1.5306628 65
-0.35588169 -0.13326359 1.3627274 7
-0.09852314 -0.18351936 1.1723564 56
-0.095239639 -0.18416071 0.99370235 32
-0.56390476 -0.092642069 0.86171192 26
-0.12506104 -0.21414661 1.5300195 62
-0.31940269 -0.17549181 1.3607714 7
-0.085755348 -0.2219646 1.1711144 51
-0.46183395 -0.14716172 1.0230107 10
-0.54696655 -0.13022876 0.85938078 39
-0.12413883 -0.25018978 1.5298051 71
-0.31834888 -0.21085572 1.3604157 8
-0.38224983 -0.19791389 1.1894941 11
-0.48414707 -0.17727661 1.024285 10
-0.55358696 -0.16321254 0.85938078 43
-0.079914093 -0.29341602 1.5284111 68
-0.305336 -0.24698234 1.3595266 8
-0.38876152 -0.22979736 1.1894941 7
-0.47106361 -0.21284413 1.0226921 10
-0.54438782 -0.19774032 0.85782665 41
-0.10667515 -0.32392955 1.5289474 58
-0.30063343 -0.28327012 1.3589931 8
-0.40745354 -0.26087737 1.1902393 7
-0.45846081 -0.25018525 1.0210993 10
-0.5395546 -0.23318529 0.85666108 41
-0.27297878 -0.32631445 1.3573927 8
-0.3250885 -0.31519151 1.1845267 11
-0.4580574 -0.28680801 1.020462 10
-0.47680664 -0.28280544 0.84966761 77
-0.27247524 -0.3619523 1.3570371 9
-0.33625698 -0.34810448 1.1847751 11
-0.43794918 -0.32602596 1.0182321 11
-0.45672607 -0.32194901 0.84694797 130
-0.26782513 -0.39678049 1.3565035 51
-0.36276054 -0.37583876 1.186017 8
-0.4293108 -0.36115885 1.0169579 14
-0.44810009 -0.35701418 0.84539384 143
-0.2792778 -0.42986512 1.3566813 103
-0.33907604 -0.41645527 1.1840299 10
-0.39005184 -0.40502405 1.013135 14
-0.4438591 -0.39295769 0.84422827 94
-0.28733253 -0.46547866 1.3566813 30
-0.32372761 -0.45717692 1.1825397 82
-0.38635254 -0.44289231 1.0121794 12
-0.42072582 -0.43505144 0.84112006 34
-0.31982327 -0.49364471 1.1817946 80
-0.40183353 -0.47463655 1.0128164 16
-0.40902042 -0.47297072 0.83917743 27
-0.38637066 -0.51360726 1.010905 27
-0.37808609 -0.51555777 0.83529222 12
-0.3629055 -0.55288863 1.0083566 13
-0.30821228 -0.56595826 0.82752168 5
0 0 0 1 0 0 0 1 0 0 0 1 0 0 0 0 0 851 1 0 0
