ply
format ascii 1.0
comment PCL generated
element vertex 63
property float x
property float y
property float z
property float intensity
element camera 1
property float view_px
property float view_py
property float view_pz
property float x_axisx
property float x_axisy
property float x_axisz
property float y_axisx
property float y_axisy
property float y_axisz
property float z_axisx
property float z_axisy
property float z_axisz
property float focal
property float scalex
property float scaley
property float centerx
property float centery
property int viewportx
property int viewporty
property float k1
property float k2
end_header
-0.36673927 0.53996938 0.3904314 255
-0.36632538 0.48536849 0.39090228 45.962521
-0.40596581 0.43355098 0.39464951 9.3076849
-0.38603592 0.34173372 0.39381504 8.4028397
-0.37627792 0.29287559 0.39343011 8.0683384
-0.37673569 0.23256047 0.39397788 7.9607601
-0.37734222 0.17799148 0.39447927 7.8560133
-0.37808228 0.1262967 0.39495921 7.7539873
-0.38895226 0.074802011 0.3962661 7.6487389
-0.37008858 0.02268675 0.39511204 7.6604199
-0.38127899 -0.028769821 0.39642835 7.5576839
-0.38266754 -0.080451012 0.3969276 7.3710747
-0.38422012 -0.13212749 0.39743185 7.2811832
-0.37597656 -0.18415317 0.39712048 7.1989484
-0.3778553 -0.23585019 0.39763463 7.1989484
-0.36993599 -0.28795794 0.39733386 7.204443
-0.37213898 -0.33967343 0.3978579 7.204443
-0.36455154 -0.39186123 0.39756775 8.4285221
-0.36707878 -0.44359317 0.39810181 6.5760994
-0.35574913 -0.59994686 0.39809728 255
-0.33904266 -0.65297771 0.39701617 255
-0.10032463 0.59390277 0.9489907 3.0186057
-0.14971542 0.54096878 0.95183313 2.3915336
-0.25920486 0.48802853 0.9575491 2.8447008
-0.30918694 0.29185551 0.96167749 6.7206578
-0.30963707 0.23423803 0.96220124 6.7206578
-0.3102932 0.17662254 0.96273112 6.8224864
-0.32104111 0.12493759 0.96368957 6.9212332
-0.32196617 0.073120058 0.96417618 7.0293775
-0.32304955 0.02130568 0.96466756 7.140955
-0.32429886 -0.030504972 0.96516383 7.8926344
-0.3257103 -0.082311392 0.96566492 7.7565541
-0.3173008 -0.1344367 0.96569586 7.3817062
-0.3190403 -0.18626454 0.96620703 7.0356889
-0.32093811 -0.23808655 0.96672291 6.9274473
-0.31302261 -0.29032037 0.96676958 6.6277676
-0.30527115 -0.34260991 0.96682179 6.5375743
-0.30766296 -0.39447436 0.96735287 6.2651749
-0.29026604 -0.44735506 0.96694249 6.025363
-0.29298592 -0.49926618 0.96748388 5.648778
-0.28589821 -0.55174303 0.96755755 5.0821061
-0.046369553 -0.72420478 0.95743906 2.3478501
-0.021850586 0.52367449 1.5337003 2.5852127
-0.11138153 0.41525161 1.5358008 5.4095783
-0.12139702 0.3686747 1.536342 5.2883759
-0.12153244 0.32500967 1.5367327 5.0702987
-0.13186455 0.26978958 1.53736 4.8173189
-0.13244629 0.20870526 1.5379183 4.5922103
-0.1331234 0.1563493 1.5384021 4.3872013
-0.14396286 0.10417336 1.5390177 4.2320213
-0.14496613 0.051854163 1.5395111 4.1253319
-0.14613724 -0.00046148896 1.5400095 4.0571446
-0.13747406 -0.053045005 1.5403869 4.0608807
-0.14896965 -0.10508052 1.5410209 4.0238895
-0.15063095 -0.15738276 1.5415339 4.0909543
-0.14246559 -0.21004537 1.5419271 4.2359185
-0.13446426 -0.26276472 1.5423256 4.5121002
-0.13662338 -0.31511161 1.5428541 4.9181895
-0.12895775 -0.36791161 1.5432633 5.12783
-0.11147118 -0.421258 1.5435547 5.419538
-0.10413933 -0.47419897 1.5439754 5.6094513
-0.096979141 -0.52719414 1.5444015 5.6791463
-0.099967957 -0.57965732 1.544956 5.0416913
0 0 0 1 0 0 0 1 0 0 0 1 0 0 0 0 0 63 1 0 0
