ply
format ascii 1.0
comment PCL generated
obj_info Generated by CloudCompare!
element vertex 796
property float x
property float y
property float z
property float scalar_intensity
end_header
2.059340 0.985661 1.474199 22.000000 
-0.263622 0.591868 1.275462 4.000000 
-0.267088 0.549986 1.375233 0.000000 
-0.392166 0.533099 1.263922 3.000000 
-0.399890 0.492565 1.360864 7.000000 
-0.410713 0.491614 1.261748 3.000000 
-0.034963 0.496813 1.502728 5.000000 
-0.425490 0.449961 1.259859 3.000000 
-0.144417 0.442400 1.488665 5.000000 
-0.492999 0.402724 1.349854 0.000000 
-0.436731 0.409969 1.258265 3.000000 
-0.462211 0.648880 1.002304 3.000000 
-0.100243 0.405329 1.493093 10.000000 
-0.401574 0.373471 1.358468 2.000000 
-0.436268 0.370515 1.257623 3.000000 
-0.397347 0.619316 1.101388 8.000000 
-0.598380 0.588497 0.996898 12.000000 
0.726810 0.447188 1.711199 2.000000 
-0.143333 0.359839 1.487023 8.000000 
-0.385609 0.336249 1.359333 18.000000 
-0.440148 0.331635 1.256607 3.000000 
-0.322709 0.591064 1.203910 8.000000 
-0.522025 0.562051 1.094093 4.000000 
-0.608697 0.549533 0.996248 9.000000 
-0.241252 0.853651 0.617502 3.000000 
1.189202 0.442542 1.773913 2.000000 
-0.147132 0.317720 1.485645 7.000000 
-0.393569 0.295619 1.357710 14.000000 
-0.202602 0.566904 1.313609 5.000000 
-0.448179 0.291512 1.255199 2.000000 
-0.451370 0.532597 1.193975 5.000000 
-0.540292 0.520525 1.092677 3.000000 
-0.611252 0.510943 0.995850 7.000000 
-0.467799 0.771604 0.718397 4.000000 
-0.473702 0.769996 0.625259 17.000000 
-0.171106 0.274967 1.481857 6.000000 
-0.397944 0.256440 1.356455 14.000000 
-0.448643 0.253180 1.254425 2.000000 
-0.458083 0.493136 1.192961 3.000000 
-0.562957 0.479701 1.090998 3.000000 
-0.614207 0.473341 0.995409 6.000000 
0.317956 0.872830 0.923334 0.000000 
-0.555174 0.718085 0.812307 15.000000 
-0.539866 0.720482 0.719665 16.000000 
-0.526082 0.722515 0.627261 16.000000 
-0.175513 0.233164 1.480381 6.000000 
-0.398549 0.216708 1.355546 15.000000 
-0.401461 0.460229 1.294229 1.000000 
-0.441349 0.214571 1.254259 3.000000 
-0.492671 0.449400 1.189874 3.000000 
-0.581848 0.438803 1.089489 3.000000 
-0.633179 0.432919 0.994319 6.000000 
-0.494575 0.689898 0.906617 8.000000 
-0.572323 0.676437 0.812335 20.000000 
-0.564901 0.677506 0.720214 15.000000 
-0.555051 0.678893 0.628474 20.000000 
-0.188216 0.191877 1.477921 6.000000 
-0.407446 0.177390 1.353794 15.000000 
-0.416572 0.419544 1.292191 2.000000 
-0.482099 0.173324 1.250054 3.000000 
-0.511864 0.408997 1.187902 3.000000 
-0.589256 0.400533 1.088597 3.000000 
-0.644623 0.394645 0.993489 6.000000 
-0.575239 0.638544 0.904889 5.000000 
-0.613630 0.632142 0.812240 19.000000 
-0.598318 0.634555 0.720825 18.000000 
-0.584516 0.636631 0.629638 22.000000 
-0.205107 0.149532 1.474927 6.000000 
-0.404640 0.138049 1.353192 9.000000 
-0.416033 0.379901 1.291534 3.000000 
-0.475363 0.134903 1.249795 3.000000 
-0.511422 0.370154 1.187321 3.000000 
-0.592865 0.361918 1.087872 3.000000 
-0.636379 0.357859 0.993355 6.000000 
-0.612739 0.594188 0.904004 5.000000 
-0.627484 0.591851 0.812184 21.000000 
-0.616124 0.593657 0.721167 19.000000 
-0.590462 0.597589 0.630014 23.000000 
0.837055 0.168667 1.719332 0.000000 
-0.198576 0.109847 1.474740 6.000000 
-0.431727 0.339602 1.289404 3.000000 
-0.468954 0.097353 1.249503 2.000000 
-0.479607 0.335562 1.189007 3.000000 
-0.592875 0.324718 1.087328 3.000000 
-0.664267 0.318181 0.991840 5.000000 
-0.623038 0.555411 0.903641 7.000000 
-0.641777 0.552700 0.812083 20.000000 
-0.602723 0.558641 0.721015 13.000000 
-0.596831 0.559578 0.630345 19.000000 
-0.250100 0.857311 0.331083 2.000000 
0.843796 0.120308 1.719011 0.000000 
-0.208128 0.068273 1.472595 6.000000 
-0.455554 0.057387 1.346225 1.000000 
-0.427790 0.300508 1.289009 3.000000 
-0.470712 0.058370 1.248482 3.000000 
-0.424091 0.301905 1.192360 6.000000 
-0.612932 0.284709 1.085637 3.000000 
-0.668490 0.280327 0.991168 6.000000 
-0.649332 0.513677 0.902906 8.000000 
-0.648309 0.514001 0.811959 21.000000 
-0.644875 0.514755 0.721600 18.000000 
-0.615221 0.519113 0.630999 22.000000 
-0.344895 0.800640 0.526755 9.000000 
-0.451993 0.780205 0.439836 6.000000 
-0.462266 0.777583 0.349349 7.000000 
-0.462166 0.776978 0.259009 7.000000 
0.834305 0.072361 1.716484 0.000000 
-0.225961 0.027496 1.469478 6.000000 
-0.350109 0.515009 1.399125 10.000000 
-0.465567 0.018813 1.344297 1.000000 
-0.448026 0.260221 1.286431 3.000000 
-0.468808 0.020554 1.247763 3.000000 
-0.352970 0.269866 1.196818 6.000000 
-0.601543 0.248776 1.085657 3.000000 
-0.669086 0.243821 0.990609 5.000000 
-0.672107 0.473785 0.902210 8.000000 
-0.659210 0.475802 0.811781 20.000000 
-0.659751 0.476111 0.721750 19.000000 
-0.641965 0.478782 0.631859 22.000000 
-0.518981 0.730640 0.535673 15.000000 
-0.535674 0.727160 0.445896 20.000000 
-0.506621 0.731720 0.353692 9.000000 
-0.502549 0.731938 0.263805 23.000000 
0.820567 0.023239 1.713337 1.000000 
-0.220225 -0.013115 1.469124 7.000000 
-0.455925 -0.019802 1.344311 1.000000 
-0.440678 0.221573 1.286297 3.000000 
-0.479077 -0.018673 1.245985 3.000000 
-0.369427 0.228702 1.194884 6.000000 
-0.622166 0.209167 1.083878 3.000000 
-0.665876 0.206774 0.990143 5.000000 
-0.671261 0.436361 0.901950 9.000000 
-0.666305 0.437394 0.811565 21.000000 
-0.674795 0.436811 0.721853 19.000000 
-0.641136 0.441481 0.631804 22.000000 
-0.543941 0.687713 0.537306 20.000000 
-0.548842 0.686484 0.447288 18.000000 
-0.543334 0.686940 0.357344 22.000000 
-0.543141 0.686586 0.268555 20.000000 
0.850017 -0.023184 1.716107 1.000000 
-0.083499 0.466187 1.531286 10.000000 
-0.206865 -0.052557 1.469682 7.000000 
-0.529678 0.413751 1.378113 1.000000 
-0.494321 -0.059056 1.339488 1.000000 
-0.449565 0.182609 1.284700 3.000000 
-0.465750 -0.056054 1.246166 2.000000 
-0.374322 0.189654 1.193779 6.000000 
-0.619253 0.172589 1.083372 3.000000 
-0.674954 0.169706 0.989200 5.000000 
-0.678732 0.398910 0.901488 10.000000 
-0.673789 0.400018 0.811310 21.000000 
-0.674356 0.400553 0.721690 19.000000 
-0.652590 0.403672 0.632080 17.000000 
-0.573331 0.645443 0.539079 22.000000 
-0.570346 0.645653 0.449144 21.000000 
-0.572689 0.644901 0.360303 17.000000 
-0.564606 0.645948 0.271322 21.000000 
0.835599 -0.072188 1.712842 1.000000 
-0.019469 0.430944 1.538460 9.000000 
-0.217576 -0.093724 1.467343 7.000000 
-0.533104 0.374351 1.376973 1.000000 
-0.505117 -0.098042 1.337410 1.000000 
-0.450711 0.143382 1.283757 3.000000 
-0.484534 -0.095322 1.243636 2.000000 
2.053978 1.019760 1.426024 2.000000 
-0.355540 0.151361 1.194331 6.000000 
-0.636452 0.133718 1.081723 3.000000 
-0.684230 0.131884 0.988201 5.000000 
-0.694317 0.359803 0.900815 10.000000 
-0.685413 0.361433 0.810993 20.000000 
-0.693941 0.361185 0.721760 19.000000 
-0.664214 0.365158 0.632307 16.000000 
-0.595014 0.603951 0.540426 23.000000 
-0.599907 0.603022 0.451468 21.000000 
-0.586473 0.604870 0.361928 21.000000 
-0.582305 0.605361 0.273657 21.000000 
0.836662 -0.119542 1.711709 1.000000 
-0.018909 0.389253 1.537606 9.000000 
-0.232570 -0.133797 1.464513 7.000000 
-0.532959 0.336386 1.376222 0.000000 
-0.488354 -0.135462 1.338105 1.000000 
-0.456170 0.104902 1.282426 3.000000 
-0.475715 -0.132897 1.243392 2.000000 
-0.335457 0.605851 1.236023 7.000000 
-0.436639 0.107718 1.187697 5.000000 
-0.626084 0.097731 1.081561 3.000000 
-0.673885 0.096342 0.987907 5.000000 
-0.702334 0.322681 0.900267 9.000000 
-0.697414 0.323936 0.810639 21.000000 
-0.686071 0.325958 0.721396 19.000000 
-0.664289 0.328993 0.632124 15.000000 
-0.597393 0.566655 0.540776 22.000000 
-0.614146 0.564100 0.452719 23.000000 
-0.592807 0.567147 0.362862 23.000000 
-0.561072 0.571838 0.272077 8.000000 
0.845340 -0.168017 1.711565 1.000000 
-0.054087 0.343098 1.532207 8.000000 
-0.212078 -0.174322 1.465832 7.000000 
-0.544860 0.296354 1.374131 0.000000 
-0.463873 -0.173981 1.339522 1.000000 
-0.184402 0.586620 1.349433 3.000000 
-0.449909 0.066208 1.282099 3.000000 
-0.459170 -0.171454 1.243732 2.000000 
-0.440203 0.550418 1.227194 5.000000 
-0.541925 0.063003 1.179304 3.000000 
-0.623888 0.060272 1.080905 3.000000 
-0.687680 0.058467 0.986672 5.000000 
-0.706545 0.285195 0.899746 9.000000 
-0.717558 0.284958 0.810212 21.000000 
-0.690295 0.288578 0.721150 18.000000 
-0.664526 0.291963 0.631887 22.000000 
-0.603864 0.527966 0.541268 23.000000 
-0.624592 0.525077 0.453668 23.000000 
-0.619019 0.525841 0.365361 22.000000 
-0.142829 0.292494 1.624078 1.000000 
0.853671 -0.215422 1.711389 1.000000 
-0.050183 0.302068 1.531753 4.000000 
-0.199821 -0.214151 1.466183 7.000000 
-0.517530 0.261039 1.376282 0.000000 
-0.443649 -0.211900 1.340509 1.000000 
-0.455905 0.027839 1.280676 3.000000 
-0.482765 -0.209406 1.240765 2.000000 
-0.466538 0.508135 1.224568 4.000000 
-0.540000 0.025761 1.178605 3.000000 
-0.633967 0.023148 1.079572 3.000000 
-0.681827 0.022650 0.986143 5.000000 
-0.711107 0.248691 0.899190 9.000000 
-0.714173 0.249366 0.809817 22.000000 
-0.690885 0.252542 0.720812 19.000000 
-0.681035 0.254393 0.632116 22.000000 
-0.618660 0.489233 0.542099 23.000000 
-0.639404 0.486595 0.454831 24.000000 
-0.629869 0.487966 0.366529 23.000000 
-0.653270 0.484962 0.281937 2.000000 
0.857711 -0.264104 1.710581 1.000000 
-0.046475 0.259986 1.531234 9.000000 
-0.199757 -0.255084 1.465052 7.000000 
-0.274658 0.492287 1.440547 11.000000 
-0.502238 0.223432 1.377089 0.000000 
-0.455528 -0.250902 1.338239 1.000000 
-0.434129 0.472441 1.323892 0.000000 
-0.462129 -0.011379 1.279189 3.000000 
-0.474732 -0.248099 1.240351 2.000000 
-0.481204 0.466835 1.222829 3.000000 
-0.534307 -0.012266 1.178126 3.000000 
-0.632296 -0.014251 1.078824 3.000000 
-0.672187 -0.013973 0.985694 5.000000 
-0.711864 0.211718 0.898659 9.000000 
-0.726901 0.211515 0.809326 21.000000 
-0.699621 0.214972 0.720534 18.000000 
-0.685787 0.217200 0.631916 22.000000 
-0.657401 0.446790 0.544025 34.000000 
-0.638547 0.449492 0.454918 24.000000 
-0.632969 0.450398 0.367004 22.000000 
-0.628754 0.451217 0.279832 2.000000 
0.833673 -0.311297 1.705993 1.000000 
-0.078760 0.216204 1.526202 10.000000 
-0.207919 -0.294919 1.462967 7.000000 
-0.281578 0.451454 1.438960 21.000000 
-0.522969 0.183862 1.374014 0.000000 
-0.419913 -0.289345 1.340708 1.000000 
-0.429366 0.434273 1.323669 1.000000 
-0.460698 -0.049289 1.278384 3.000000 
-0.470949 -0.285914 1.239587 3.000000 
-0.488375 0.427679 1.221673 3.000000 
-0.544864 -0.049948 1.176482 3.000000 
-0.622935 -0.050484 1.078478 3.000000 
-0.678815 -0.050350 0.984638 5.000000 
-0.716941 0.175365 0.898017 8.000000 
-0.728009 0.175681 0.808833 20.000000 
-0.696735 0.179367 0.720051 19.000000 
-0.678916 0.181919 0.631307 22.000000 
-0.637090 0.413031 0.543052 23.000000 
-0.642025 0.412823 0.455222 25.000000 
-0.612702 0.416684 0.365503 8.000000 
-0.632232 0.414695 0.280397 3.000000 
0.868741 -0.360521 1.709352 0.000000 
0.049983 0.447409 1.583298 7.000000 
-0.083576 0.173789 1.524589 9.000000 
-0.176648 -0.336409 1.465460 7.000000 
-0.340015 0.403956 1.431441 14.000000 
-0.547886 0.143395 1.370457 0.000000 
-0.396519 -0.329021 1.341901 5.000000 
-0.389150 0.399156 1.326827 19.000000 
-0.451537 -0.087954 1.278217 3.000000 
-0.284083 -0.328099 1.253717 10.000000 
-0.491755 0.388167 1.220775 3.000000 
-0.547679 -0.088196 1.175342 3.000000 
-0.629768 -0.088165 1.077209 3.000000 
-0.689666 -0.087630 0.983375 5.000000 
-0.722209 0.138212 0.897318 8.000000 
-0.737283 0.138433 0.808265 19.000000 
-0.705999 0.142007 0.719686 19.000000 
-0.688174 0.144542 0.631145 22.000000 
-0.652623 0.374043 0.543745 23.000000 
-0.649626 0.374887 0.455732 23.000000 
-0.651967 0.375026 0.368792 4.000000 
-0.639822 0.376909 0.281299 3.000000 
0.220246 0.423161 1.604872 9.000000 
-0.096683 0.131999 1.521949 9.000000 
-0.173451 -0.376604 1.464669 7.000000 
-0.351514 0.363334 1.429308 11.000000 
-0.541403 0.106206 1.370283 0.000000 
-0.393282 -0.367554 1.341092 16.000000 
-0.400729 0.358992 1.324980 18.000000 
-0.466569 -0.126223 1.275907 3.000000 
-0.463797 0.353055 1.222331 3.000000 
-0.534826 -0.125167 1.175308 3.000000 
-0.632893 -0.124752 1.076131 3.000000 
-0.684813 -0.123536 0.982666 5.000000 
-0.727799 0.102044 0.896591 7.000000 
-0.754865 0.101714 0.807651 18.000000 
-0.715589 0.105685 0.719292 19.000000 
-0.693768 0.108457 0.630827 22.000000 
-0.664568 0.336620 0.544210 23.000000 
-0.657599 0.337977 0.456206 19.000000 
-0.671832 0.336958 0.370432 3.000000 
-0.647781 0.340145 0.282164 3.000000 
0.287961 0.385315 1.612797 9.000000 
-0.086246 0.090692 1.522220 9.000000 
-0.174533 -0.417717 1.463330 7.000000 
-0.390892 0.319197 1.423959 9.000000 
-0.487465 0.070613 1.375153 11.000000 
-0.394319 -0.406964 1.339808 15.000000 
-0.396650 0.319636 1.324603 17.000000 
-0.445994 -0.164823 1.276698 3.000000 
-0.333709 -0.405703 1.247305 9.000000 
-0.435968 0.316634 1.223827 3.000000 
-0.534183 -0.163380 1.174356 3.000000 
-0.624276 -0.162055 1.075623 3.000000 
-0.684192 -0.160453 0.981746 5.000000 
-0.729598 0.065307 0.895882 7.000000 
-0.744702 0.065954 0.807042 17.000000 
-0.729375 0.068399 0.718902 19.000000 
-0.687589 0.072264 0.630071 22.000000 
-0.656815 0.300494 0.543668 22.000000 
-0.661772 0.300714 0.456371 16.000000 
-0.668085 0.300700 0.370083 4.000000 
-0.659874 0.302231 0.283365 2.000000 
0.272415 0.340026 1.609719 9.000000 
-0.076149 0.050276 1.522455 6.000000 
-0.156018 -0.458625 1.464288 7.000000 
-0.434658 0.276252 1.418126 9.000000 
-0.489426 0.032570 1.374027 6.000000 
-0.375710 -0.446202 1.340473 15.000000 
-0.404833 0.280118 1.323044 15.000000 
-0.453589 -0.202869 1.275002 3.000000 
-0.444208 0.277505 1.222482 4.000000 
-0.537806 -0.200682 1.173099 3.000000 
-0.627910 -0.198620 1.074455 3.000000 
-0.679840 -0.196450 0.980945 5.000000 
-0.723711 0.029896 0.895300 6.000000 
-0.734832 0.030955 0.806403 16.000000 
-0.703528 0.034202 0.717886 19.000000 
-0.693687 0.036289 0.629667 23.000000 
-0.661331 0.264064 0.543664 23.000000 
-0.666294 0.264424 0.456500 15.000000 
-0.668646 0.264931 0.370021 4.000000 
-0.684217 0.264277 0.285698 2.000000 
0.244784 0.292905 1.605015 9.000000 
-0.101977 0.007282 1.518165 11.000000 
-0.145772 -0.500429 1.464229 7.000000 
-0.458866 0.234675 1.414496 8.000000 
-0.475712 -0.005733 1.374536 6.000000 
-0.365372 -0.486297 1.340264 14.000000 
-0.405277 0.240458 1.322189 15.000000 
-0.453476 -0.241777 1.273936 3.000000 
-0.452094 -0.478759 1.235276 2.000000 
-0.448668 0.237909 1.221391 4.000000 
-0.533705 -0.238880 1.172333 3.000000 
-0.627802 -0.236050 1.073430 3.000000 
-0.687728 -0.233385 0.979651 5.000000 
-0.738008 -0.007317 0.894273 6.000000 
-0.745145 -0.005904 0.805662 15.000000 
-0.725822 -0.003286 0.717529 20.000000 
-0.699996 -0.000475 0.629204 22.000000 
-0.666026 0.226831 0.543605 23.000000 
-0.667019 0.227678 0.456318 15.000000 
-0.641575 0.230722 0.367638 3.000000 
-0.625473 0.233043 0.279821 7.000000 
0.224624 0.247900 1.601316 9.000000 
-0.108317 -0.033657 1.516324 10.000000 
-0.139741 -0.541162 1.463689 7.000000 
-0.455720 0.196573 1.413989 8.000000 
-0.478200 -0.043798 1.373316 5.000000 
-0.363221 -0.525151 1.339254 12.000000 
-0.402111 0.202099 1.321679 13.000000 
-0.453631 -0.279734 1.272849 3.000000 
-0.429995 -0.517955 1.235826 3.000000 
-0.445536 0.199970 1.220886 4.000000 
-0.529866 -0.276201 1.171546 2.000000 
-0.627951 -0.272566 1.072384 3.000000 
-0.667887 -0.269545 0.979323 5.000000 
-0.748606 -0.043286 0.893300 7.000000 
-0.755751 -0.041722 0.804899 14.000000 
-0.732429 -0.038989 0.716909 19.000000 
-0.694612 -0.035815 0.628331 22.000000 
-0.671057 0.190577 0.543515 23.000000 
-0.680012 0.190901 0.456879 14.000000 
-0.618777 0.196736 0.365542 9.000000 
-0.626514 0.197146 0.279734 7.000000 
0.893723 -0.651555 1.704181 3.000000 
0.212133 0.202689 1.598594 10.000000 
-0.106974 -0.075301 1.515399 9.000000 
-0.126119 -0.583493 1.463977 7.000000 
-0.484485 0.155266 1.409820 8.000000 
-0.484900 -0.082868 1.371606 9.000000 
-0.365368 -0.564767 1.337769 7.000000 
-0.418998 0.161358 1.319207 12.000000 
-0.438123 -0.318911 1.273082 3.000000 
-0.408231 -0.558424 1.236281 3.000000 
-0.462487 0.159654 1.218771 3.000000 
-0.514329 -0.314707 1.171519 3.000000 
-0.624369 -0.310056 1.071476 3.000000 
-0.656304 -0.306761 0.978636 5.000000 
-0.735442 -0.079306 0.892718 17.000000 
-0.746589 -0.077690 0.804107 15.000000 
-0.715271 -0.074777 0.715856 19.000000 
-0.685448 -0.071989 0.627263 21.000000 
-0.672294 0.153813 0.543176 22.000000 
-0.669315 0.155177 0.455831 15.000000 
-0.623973 0.159535 0.365656 8.000000 
-0.623771 0.160686 0.279202 7.000000 
0.187371 0.158007 1.594278 10.000000 
-0.117854 -0.116162 1.512968 9.000000 
-0.144450 -0.622825 1.460578 6.000000 
-0.485852 0.117097 1.408772 8.000000 
-0.483944 -0.120732 1.370719 6.000000 
-0.412400 0.123352 1.318983 11.000000 
-0.450758 -0.356682 1.270856 3.000000 
-0.402614 -0.597178 1.235438 3.000000 
-0.519591 0.118005 1.213532 3.000000 
-0.411283 -0.354572 1.177580 6.000000 
-0.589086 -0.347421 1.072214 4.000000 
-0.656956 -0.342964 0.977510 5.000000 
-0.742542 -0.115037 0.891735 22.000000 
-0.737699 -0.112893 0.803290 13.000000 
-0.710377 -0.110173 0.714962 19.000000 
-0.692546 -0.107750 0.626689 23.000000 
-0.681822 0.117452 0.543193 24.000000 
-0.678838 0.118899 0.456048 16.000000 
-0.645404 0.122264 0.367042 8.000000 
-0.637231 0.124043 0.280197 7.000000 
0.186110 0.113956 1.593012 10.000000 
-0.101216 -0.157548 1.513911 9.000000 
-0.111608 -0.666857 1.463043 6.000000 
-0.491396 0.077796 1.407212 9.000000 
-0.467323 -0.159355 1.371450 5.000000 
-0.465708 -0.635765 1.325394 0.000000 
-0.409982 0.084091 1.318315 10.000000 
-0.443764 -0.395850 1.270292 3.000000 
-0.401311 -0.636683 1.234189 3.000000 
-0.529173 0.078954 1.211952 3.000000 
-0.320523 -0.396476 1.182686 7.000000 
-0.590026 -0.385118 1.070995 3.000000 
-0.645896 -0.380420 0.976725 5.000000 
-0.733879 -0.151320 0.890985 9.000000 
-0.741036 -0.149272 0.802388 14.000000 
-0.721710 -0.146758 0.714253 18.000000 
-0.699876 -0.144293 0.626051 23.000000 
-0.679588 0.081056 0.542572 23.000000 
-0.684581 0.082121 0.455949 17.000000 
-0.647151 0.085595 0.366745 9.000000 
-0.650898 0.086715 0.281137 7.000000 
0.180523 0.070821 1.591195 10.000000 
-0.096786 -0.198201 1.513349 8.000000 
0.004148 -0.717303 1.475059 3.000000 
-0.489327 0.039930 1.406521 9.000000 
-0.490759 -0.197459 1.367938 6.000000 
-0.432850 -0.676646 1.327307 3.000000 
-0.407890 0.045773 1.317615 9.000000 
-0.433032 -0.434324 1.270054 3.000000 
-0.392266 -0.675919 1.233562 3.000000 
-0.535100 0.041189 1.210653 3.000000 
-0.321761 -0.435232 1.181386 7.000000 
-0.583217 -0.422183 1.070174 3.000000 
-0.647054 -0.416691 0.975508 5.000000 
-0.729478 -0.186857 0.890136 7.000000 
-0.736636 -0.184651 0.801475 14.000000 
-0.713311 -0.182128 0.713207 18.000000 
-0.687483 -0.179668 0.624738 21.000000 
-0.673665 0.045740 0.541729 24.000000 
-0.674685 0.047154 0.454780 17.000000 
-0.657164 0.049437 0.367073 9.000000 
-0.648977 0.051313 0.280489 7.000000 
0.158831 0.026060 1.587232 10.000000 
-0.088663 -0.239940 1.513199 8.000000 
-0.515278 -0.000059 1.402627 10.000000 
-0.478656 -0.236246 1.368148 4.000000 
-0.110901 -0.745000 1.357222 6.000000 
-0.413976 0.006148 1.316094 9.000000 
-0.422609 -0.473908 1.269731 3.000000 
-0.351805 -0.719091 1.235361 1.000000 
-0.529294 0.003099 1.210215 3.000000 
-0.343239 -0.474051 1.178630 7.000000 
-0.572712 -0.460447 1.069478 3.000000 
-0.624536 -0.454903 0.975030 4.000000 
-0.717321 -0.223339 0.889363 6.000000 
-0.732479 -0.220973 0.800493 15.000000 
-0.705155 -0.218497 0.712091 18.000000 
-0.675333 -0.216098 0.623352 22.000000 
-0.675928 0.009111 0.541212 23.000000 
-0.680937 0.010459 0.454593 18.000000 
-0.663409 0.012726 0.367016 8.000000 
-0.639306 0.015378 0.278997 7.000000 
0.152634 -0.016765 1.585315 9.000000 
-0.096708 -0.280619 1.511063 8.000000 
-0.505800 -0.037477 1.402742 10.000000 
-0.408440 -0.031998 1.315678 8.000000 
-0.428339 -0.511858 1.268013 3.000000 
-0.216322 -0.771055 1.244661 3.000000 
-0.531761 -0.034408 1.209134 2.000000 
-0.364937 -0.511611 1.175869 6.000000 
-0.546478 -0.498761 1.069579 4.000000 
-0.646170 -0.490306 0.973044 4.000000 
-0.729413 -0.258937 0.888137 6.000000 
-0.740573 -0.256389 0.799481 16.000000 
-0.721247 -0.253952 0.711344 18.000000 
-0.687421 -0.251679 0.622739 23.000000 
-0.686467 -0.026889 0.541060 23.000000 
-0.687484 -0.025252 0.454381 18.000000 
-0.669947 -0.023001 0.366935 9.000000 
-0.661742 -0.021029 0.280611 7.000000 
0.158067 -0.060227 1.584876 9.000000 
-0.073290 -0.322733 1.512763 8.000000 
-0.492577 -0.075852 1.403233 10.000000 
-0.518900 -0.312341 1.361735 0.000000 
-0.403136 -0.071167 1.315193 8.000000 
-0.402558 -0.552589 1.268957 3.000000 
2.060577 -1.047460 1.422588 3.000000 
-0.518513 -0.072348 1.209213 3.000000 
-0.438726 -0.546781 1.169489 5.000000 
-0.548487 -0.536751 1.068164 4.000000 
-0.624189 -0.528855 0.972463 4.000000 
-0.713767 -0.295637 0.887339 6.000000 
-0.728922 -0.292839 0.798413 17.000000 
-0.693602 -0.290625 0.709805 18.000000 
-0.679777 -0.288223 0.621393 22.000000 
-0.681257 -0.063122 0.540065 22.000000 
-0.690262 -0.061619 0.453846 18.000000 
-0.656783 -0.058878 0.365154 10.000000 
-0.640641 -0.056599 0.277852 7.000000 
0.143341 -0.103089 1.581824 9.000000 
-0.073965 -0.363591 1.511504 8.000000 
-0.507463 -0.114029 1.400570 10.000000 
-0.527475 -0.349769 1.359739 0.000000 
-0.402111 -0.109525 1.314303 8.000000 
-0.408827 -0.590617 1.267141 3.000000 
-0.533463 -0.110125 1.207121 2.000000 
-0.476836 -0.582340 1.165582 4.000000 
-0.546719 -0.574058 1.066940 3.000000 
-0.630358 -0.565008 0.970928 5.000000 
-0.714357 -0.331334 0.886239 6.000000 
-0.717513 -0.328564 0.797322 18.000000 
-0.686195 -0.326401 0.708573 18.000000 
-0.680368 -0.323831 0.620294 22.000000 
-0.676322 -0.098530 0.539044 23.000000 
-0.677356 -0.096663 0.452237 18.000000 
-0.647875 -0.094140 0.363673 10.000000 
-0.647664 -0.092265 0.277814 7.000000 
0.156116 -0.147495 1.582283 10.000000 
-0.067039 -0.406732 1.511103 8.000000 
-0.510658 -0.153712 1.399156 10.000000 
-0.480688 -0.390658 1.363480 0.000000 
-0.405302 -0.149860 1.312944 8.000000 
-0.387668 -0.632542 1.267589 3.000000 
-0.528706 -0.149265 1.206469 2.000000 
-0.471523 -0.622463 1.164552 3.000000 
-0.553308 -0.612678 1.065193 3.000000 
-0.608989 -0.604912 0.970201 5.000000 
-0.711245 -0.368921 0.885105 6.000000 
-0.714397 -0.366013 0.796124 18.000000 
-0.683082 -0.363959 0.707304 18.000000 
-0.665265 -0.361630 0.618553 22.000000 
-0.679590 -0.135911 0.538328 23.000000 
-0.692596 -0.134136 0.452381 18.000000 
-0.655125 -0.131576 0.363419 10.000000 
-0.638985 -0.129306 0.276116 7.000000 
0.160610 -0.188932 1.581734 9.000000 
-0.068257 -0.446607 1.509774 7.000000 
-0.502241 -0.190437 1.399103 10.000000 
-0.521572 -0.426098 1.358088 0.000000 
-0.408809 -0.187267 1.311610 8.000000 
-0.366601 -0.671903 1.268093 2.000000 
-0.524255 -0.185662 1.205839 3.000000 
-0.466284 -0.659850 1.163586 3.000000 
-0.548012 -0.649394 1.064114 3.000000 
-0.587709 -0.642392 0.969525 5.000000 
-0.696321 -0.404290 0.884218 7.000000 
-0.703464 -0.401111 0.794967 20.000000 
-0.676152 -0.399022 0.706007 18.000000 
-0.674322 -0.396178 0.617666 22.000000 
-0.683153 -0.170577 0.537637 23.000000 
-0.680194 -0.168441 0.450704 18.000000 
-0.646723 -0.166067 0.361870 10.000000 
-0.646518 -0.163985 0.276015 7.000000 
0.172767 -0.233629 1.582075 9.000000 
-0.026238 -0.491519 1.513631 7.000000 
-0.482138 -0.230120 1.400257 9.000000 
-0.523052 -0.465564 1.356725 0.000000 
-0.392649 -0.227501 1.312024 9.000000 
-0.524031 -0.224921 1.204783 3.000000 
-0.441661 -0.701895 1.163792 3.000000 
-0.519320 -0.691050 1.064062 3.000000 
-0.566925 -0.682934 0.968676 5.000000 
-0.697732 -0.441891 0.882919 7.000000 
-0.704871 -0.438546 0.793673 20.000000 
-0.681557 -0.436379 0.704781 18.000000 
-0.651762 -0.434556 0.615549 21.000000 
-0.678952 -0.207824 0.536435 23.000000 
-0.675998 -0.205597 0.449437 18.000000 
-0.646520 -0.203366 0.360865 9.000000 
-0.626415 -0.201085 0.273037 7.000000 
0.168746 -0.276231 1.580363 9.000000 
-0.016178 -0.533322 1.513610 7.000000 
-0.482187 -0.268034 1.399190 9.000000 
-0.524727 -0.503138 1.355380 0.000000 
-0.400664 -0.265864 1.310197 9.000000 
-0.301848 -0.757682 1.270778 12.000000 
-0.528069 -0.262282 1.203428 3.000000 
-0.425131 -0.741666 1.163481 3.000000 
-0.510667 -0.729408 1.063035 3.000000 
-0.554243 -0.721211 0.967589 7.000000 
-0.683351 -0.478467 0.881902 8.000000 
-0.670503 -0.475916 0.792374 20.000000 
-0.671166 -0.472641 0.703290 17.000000 
-0.641380 -0.470907 0.613853 22.000000 
-0.663027 -0.243392 0.534636 22.000000 
-0.668072 -0.241048 0.447907 17.000000 
-0.634618 -0.238920 0.358870 9.000000 
-0.626473 -0.236638 0.272035 6.000000 
0.184251 -0.320149 1.581131 9.000000 
-0.002504 -0.576546 1.513978 8.000000 
-0.486484 -0.306833 1.397606 9.000000 
-0.522741 -0.541872 1.354368 0.000000 
-0.397008 -0.305245 1.309414 10.000000 
-0.496482 -0.301025 1.204721 3.000000 
-0.170743 -0.806870 1.179024 5.000000 
-0.450702 -0.774053 1.064466 6.000000 
-0.533970 -0.761403 0.966659 6.000000 
-0.669277 -0.516150 0.880799 8.000000 
-0.668407 -0.512907 0.791009 20.000000 
-0.657084 -0.510167 0.701646 18.000000 
-0.635295 -0.508091 0.612213 21.000000 
-0.667331 -0.279859 0.533763 22.000000 
-0.664391 -0.277454 0.446571 17.000000 
-0.630946 -0.275448 0.357464 8.000000 
-0.630767 -0.273041 0.271359 6.000000 
0.195499 -0.363131 1.581359 9.000000 
-0.111899 -0.610747 1.499376 7.000000 
-0.459240 -0.345329 1.399538 8.000000 
-0.497150 -0.581279 1.355815 1.000000 
-0.389629 -0.343804 1.308982 11.000000 
-0.465153 -0.339273 1.205982 3.000000 
-0.319109 -0.821836 0.971864 7.000000 
-0.675377 -0.551890 0.879358 8.000000 
-0.666519 -0.549042 0.789631 19.000000 
-0.651201 -0.546513 0.700128 17.000000 
-0.617449 -0.545199 0.610137 20.000000 
-0.667881 -0.315446 0.532672 21.000000 
-0.668931 -0.312888 0.445751 16.000000 
-0.631499 -0.311071 0.356372 7.000000 
-0.615402 -0.308814 0.268680 6.000000 
0.226249 -0.407937 1.584050 9.000000 
0.051702 -0.664633 1.517940 8.000000 
-0.456132 -0.384465 1.398737 8.000000 
-0.471909 -0.622005 1.357164 2.000000 
-0.398467 -0.382972 1.306987 12.000000 
-0.430130 -0.379021 1.207453 3.000000 
-0.661834 -0.589847 0.878154 8.000000 
-0.652970 -0.586939 0.788154 20.000000 
-0.657605 -0.583031 0.698749 17.000000 
-0.599929 -0.583467 0.607971 20.000000 
-0.652723 -0.352305 0.530702 21.000000 
-0.653788 -0.349623 0.443519 15.000000 
-0.644276 -0.347300 0.356210 5.000000 
-0.640099 -0.344780 0.269906 3.000000 
0.236888 -0.451377 1.584158 9.000000 
-0.437378 -0.423275 1.399677 7.000000 
-0.391370 -0.666615 1.364225 7.000000 
-0.399587 -0.421344 1.305718 13.000000 
-0.427254 -0.417195 1.206495 3.000000 
-0.644511 -0.627412 0.876995 9.000000 
-0.639629 -0.624138 0.786660 19.000000 
-0.632292 -0.620979 0.696763 17.000000 
-0.582621 -0.621087 0.605785 20.000000 
-0.641794 -0.388360 0.528912 22.000000 
-0.638878 -0.385680 0.441264 15.000000 
-0.641339 -0.382947 0.354698 5.000000 
-0.653080 -0.379879 0.269930 3.000000 
0.239257 -0.495702 1.583153 8.000000 
-0.414962 -0.463484 1.400967 8.000000 
-0.393049 -0.461006 1.305107 14.000000 
-0.412724 -0.456872 1.206351 4.000000 
-0.635503 -0.665470 0.875621 9.000000 
-0.630614 -0.662110 0.785083 19.000000 
-0.623274 -0.658882 0.694984 17.000000 
-0.573627 -0.659217 0.603794 20.000000 
-0.659094 -0.424399 0.528469 22.000000 
-0.644197 -0.422089 0.440279 15.000000 
-0.638684 -0.419529 0.353111 5.000000 
-0.638493 -0.416706 0.267084 2.000000 
0.296835 -0.541833 1.589241 9.000000 
-0.384850 -0.503461 1.403106 8.000000 
-0.374816 -0.500404 1.305580 16.000000 
-0.426323 -0.494433 1.204103 4.000000 
-0.626691 -0.702766 0.874234 8.000000 
-0.609841 -0.700397 0.783466 20.000000 
-0.602499 -0.697091 0.692960 15.000000 
-0.568809 -0.696229 0.601935 20.000000 
-0.644675 -0.460750 0.526382 23.000000 
-0.641755 -0.457895 0.438741 16.000000 
-0.632264 -0.455439 0.351173 5.000000 
-0.628106 -0.452679 0.264618 2.000000 
0.302524 -0.586872 1.588617 9.000000 
-0.359046 -0.544610 1.404709 8.000000 
-0.384748 -0.539443 1.303395 18.000000 
-0.468104 -0.531189 1.199704 3.000000 
-0.602308 -0.742669 0.872987 8.000000 
-0.609343 -0.737965 0.781802 18.000000 
-0.574129 -0.737280 0.690680 15.000000 
-0.536486 -0.736897 0.598962 20.000000 
-0.630561 -0.498201 0.524211 21.000000 
-0.635624 -0.494838 0.436852 18.000000 
-0.606239 -0.493345 0.347466 10.000000 
-0.614044 -0.489891 0.261668 3.000000 
0.351512 -0.633768 1.593539 7.000000 
-0.333484 -0.585168 1.406287 8.000000 
-0.367069 -0.579175 1.303761 20.000000 
-0.478224 -0.568443 1.197677 3.000000 
-0.566197 -0.783274 0.871890 7.000000 
-0.581168 -0.777553 0.780049 18.000000 
-0.545971 -0.776973 0.688376 15.000000 
-0.536191 -0.773858 0.597144 18.000000 
-0.620650 -0.534727 0.522228 22.000000 
-0.625719 -0.531215 0.434675 22.000000 
-0.608293 -0.529120 0.346105 22.000000 
-0.608142 -0.525961 0.259507 3.000000 
0.083472 -0.659454 1.557958 8.000000 
-0.272585 -0.629645 1.411675 14.000000 
-0.444886 -0.609600 1.198811 3.000000 
-0.542425 -0.823986 0.870514 3.000000 
-0.553391 -0.818466 0.778189 16.000000 
-0.534112 -0.816239 0.686290 14.000000 
-0.500494 -0.815678 0.593896 16.000000 
-0.599100 -0.573084 0.519535 21.000000 
-0.612147 -0.568892 0.432138 23.000000 
-0.606675 -0.566029 0.344325 21.000000 
-0.606526 -0.562760 0.257666 2.000000 
-0.239707 -0.671823 1.413984 14.000000 
-0.420001 -0.653545 1.296290 0.000000 
-0.439629 -0.648133 1.197863 3.000000 
-0.371902 -0.881614 0.871122 7.000000 
-0.521848 -0.859343 0.776293 12.000000 
-0.494632 -0.858038 0.683614 13.000000 
-0.449134 -0.858946 0.590021 13.000000 
-0.593701 -0.609694 0.517657 22.000000 
-0.606743 -0.605301 0.430136 23.000000 
-0.585377 -0.603497 0.340831 20.000000 
-0.589226 -0.599825 0.254193 2.000000 
-0.072516 -0.727097 1.430881 5.000000 
-0.411152 -0.693723 1.295743 1.000000 
-0.418817 -0.689054 1.197993 3.000000 
-0.267327 -0.920054 0.581019 10.000000 
-0.572705 -0.648563 0.514852 23.000000 
-0.601668 -0.642695 0.428048 21.000000 
-0.576342 -0.641236 0.338268 20.000000 
-0.564330 -0.638652 0.249816 18.000000 
-0.136737 -0.757687 1.319356 4.000000 
-0.394252 -0.729699 1.198393 3.000000 
-0.579774 -0.684424 0.513507 19.000000 
-0.580878 -0.680642 0.424838 21.000000 
-0.555589 -0.679230 0.334662 19.000000 
-0.535682 -0.677271 0.245008 23.000000 
-0.567289 -0.722970 0.511017 21.000000 
-0.572372 -0.718688 0.422367 20.000000 
-0.535201 -0.718428 0.330959 19.000000 
-0.515332 -0.716479 0.240916 20.000000 
2.050165 -1.067114 1.373135 1.000000 
-0.547045 -0.761600 0.508085 21.000000 
-0.528314 -0.759530 0.417364 18.000000 
-0.518977 -0.756628 0.327583 18.000000 
-0.495181 -0.755077 0.236805 19.000000 
-0.531156 -0.801013 0.505267 19.000000 
-0.516416 -0.798521 0.414495 17.000000 
-0.491243 -0.797239 0.323067 16.000000 
-0.475415 -0.794882 0.232593 18.000000 
-0.507411 -0.839748 0.502047 17.000000 
-0.500626 -0.836324 0.411377 16.000000 
-0.416194 -0.837574 0.224282 10.000000 
-0.440676 -0.886878 0.496232 10.000000 
-0.374534 -0.890489 0.400113 8.000000 
-0.286261 -0.896779 0.300600 9.000000 
-0.085068 -0.916318 0.187180 8.000000 
-0.211555 -0.952989 0.481475 6.000000 
-0.185255 -0.951669 0.384288 4.000000 
